36289.2 36289.2 36289.2 36289.2 36289.2 36289.2 36289.2 36289.2 36293.8 36293.8 36289.2 36289.2 36289.2 36289.2 36289.2 36289.2 36289.2 36289.2 36289.2 36289.2 36289.2 36289.2 36289.2 36289.2 36289.2 36289.2 36289.2 36289.2 36289.2 36289.2 36289.2 36293.8 36293.8 36293.8 36293.8 36293.8 36293.8 36293.8 36293.8 36293.8 36293.8 36293.8 36293.8 36293.8 36293.8 36293.8 36293.8 36293.8 36293.8 36298.4 36298.4 36298.4 36303 36303 36303 36303 36303 36303 36303 36303 36303 36303 36303 36303 36298.4 36298.4 36298.4 36298.4 36298.4 36293.8 36293.8 36293.8 36293.8 36293.8 36289.2 36289.2 36289.2 36289.2 36289.2 36289.2 36284.6 36280.1 36280.1 36275.5 36275.5 36275.5 36275.5 36275.5 36275.5 36275.5 36275.5 36275.5 36275.5 36275.5 36275.5 36275.5 36275.5 36275.5 36280.1 36280.1 36280.1 36280.1 36284.6 36284.6 36284.6 36284.6 36289.2 36289.2 36289.2 36289.2 36293.8 36289.2 36289.2 36289.2 36289.2 36289.2 36289.2 36284.6 36284.6 36284.6 36284.6 36280.1 36280.1 36275.5 36280.1 36280.1 36280.1 36280.1 36280.1 36280.1 36280.1 36284.6 36284.6 36289.2 36289.2 36293.8 36298.4 36298.4 36303 36303 36303 36307.5 36312.1 36316.7 36321.3 36325.9 36330.5 36335 36339.6 36348.8 36348.8 36353.4 36358 36362.6 36367.2 36371.8 36376.3 36376.3 36380.9 36385.5 36390.1 36390.1 36390.1 36394.7 36399.3 36403.9 36403.9 36408.5 36408.5 36413.1 36417.7 36422.3 36422.3 36426.9 36436.1 36436.1 36445.3 36449.9 36449.9 36449.9 36454.5 36454.5 36459.1 36459.1 36459.1 36463.7 36463.7 36468.3 36472.9 36472.9 36472.9 36482.1 36482.1 36486.7 36486.7 36491.3 36491.3 36495.9 36495.9 36495.9 36495.9 36495.9 36491.3 36486.7 36482.1 36482.1 36472.9 36463.7 36454.5 36445.3 36436.1 36422.3 36408.5 36390.1 36371.8 36348.8 36307.5 36252.6 36202.3 36152.1 36097.4 36051.9 36011 35997.4 35979.2 35961.1 35938.4 35924.8 35906.7 35897.7 35893.1 35884.1 35879.6 35875 35866 35861.5 35857 35852.4 35852.4 35847.9 35838.9 35834.4 35829.9 35816.3 35811.8 35807.3 35807.3 35798.2 35793.7 35793.7 35789.2 35784.7 35775.7 35775.7 35766.7 35762.2 35762.2 35757.6 35757.6 35757.6 35753.1 35762.2 35766.7 35775.7 35780.2 35789.2 35798.2 35807.3 35811.8 35816.3 35816.3 35816.3 35816.3 35816.3 35811.8 35802.8 35789.2 35780.2 35775.7 35766.7 35762.2 35753.1 35744.1 35735.1 35735.1 35721.6 35712.6 35703.6 35694.6 35690.1 35676.6 35663.1 35649.6 35636.2 35627.2 35618.2 35604.7 35595.8 35586.8 35573.4 35564.4 35559.9 35524.1 35497.2 35461.5 35434.7 35416.8 35399 35345.5 35314.4 35283.3 35247.7 35225.5 35194.5 35167.9 35167.9 35167.9 35167.9 35159.1 35141.4 35128.1 35119.3 35119.3 35110.4 35088.3 35075.1 35048.6 35022.1 35004.5 34978.1 34960.5 34934.1 34912.1 34890.1 34872.6 34855 34833.1 34815.6 34780.5 34749.9 34710.6 34675.7 34636.4 34597.2 34558.1 34519 34480 34441 34402 34371.7 34345.8 34315.6 34285.4 34259.5 34229.4 34203.6 34177.8 34152 34126.3 34096.3 34062 34032.1 34002.1 33972.2 33933.8 33891.2 33848.7 33801.9 33759.5 33712.8 33666.3 33624 33598.7 33573.4 33552.3 33522.8 33489.1 33468.1 33442.9 33413.5 33384.2 33350.6
36307.5 36307.5 36312.1 36312.1 36312.1 36312.1 36312.1 36316.7 36316.7 36316.7 36316.7 36312.1 36312.1 36312.1 36312.1 36312.1 36312.1 36312.1 36307.5 36307.5 36307.5 36307.5 36307.5 36307.5 36307.5 36312.1 36312.1 36312.1 36312.1 36312.1 36316.7 36316.7 36316.7 36316.7 36316.7 36316.7 36316.7 36316.7 36316.7 36316.7 36316.7 36316.7 36316.7 36316.7 36316.7 36316.7 36316.7 36316.7 36316.7 36316.7 36316.7 36321.3 36321.3 36325.9 36325.9 36325.9 36325.9 36325.9 36325.9 36325.9 36325.9 36325.9 36321.3 36321.3 36321.3 36321.3 36316.7 36316.7 36316.7 36316.7 36316.7 36316.7 36316.7 36316.7 36316.7 36316.7 36312.1 36312.1 36312.1 36312.1 36307.5 36303 36303 36303 36298.4 36298.4 36298.4 36298.4 36293.8 36293.8 36298.4 36298.4 36298.4 36298.4 36298.4 36298.4 36298.4 36303 36303 36303 36303 36303 36303 36303 36303 36307.5 36312.1 36312.1 36316.7 36316.7 36316.7 36316.7 36316.7 36312.1 36312.1 36312.1 36312.1 36312.1 36307.5 36307.5 36307.5 36303 36303 36303 36303 36303 36303 36303 36303 36303 36307.5 36307.5 36307.5 36307.5 36312.1 36316.7 36316.7 36321.3 36321.3 36325.9 36330.5 36330.5 36330.5 36339.6 36348.8 36348.8 36358 36362.6 36362.6 36371.8 36376.3 36376.3 36380.9 36385.5 36390.1 36394.7 36399.3 36403.9 36403.9 36408.5 36408.5 36413.1 36413.1 36422.3 36422.3 36426.9 36426.9 36431.5 36436.1 36436.1 36436.1 36440.7 36445.3 36449.9 36454.5 36463.7 36463.7 36468.3 36472.9 36477.5 36477.5 36482.1 36482.1 36482.1 36482.1 36486.7 36491.3 36495.9 36495.9 36495.9 36495.9 36500.5 36509.8 36509.8 36514.4 36519 36519 36523.6 36523.6 36523.6 36523.6 36519 36519 36514.4 36509.8 36505.1 36500.5 36495.9 36482.1 36477.5 36463.7 36454.5 36440.7 36422.3 36403.9 36380.9 36358 36303 36252.6 36202.3 36152.1 36102 36056.5 36024.6 36011 35988.3 35970.2 35952 35938.4 35924.8 35915.8 35911.2 35906.7 35897.7 35893.1 35888.6 35884.1 35884.1 35879.6 35879.6 35870.5 35866 35861.5 35847.9 35834.4 35834.4 35829.9 35820.8 35816.3 35811.8 35811.8 35807.3 35802.8 35793.7 35793.7 35789.2 35784.7 35780.2 35775.7 35775.7 35775.7 35789.2 35798.2 35807.3 35816.3 35820.8 35834.4 35838.9 35847.9 35847.9 35847.9 35847.9 35847.9 35847.9 35843.4 35834.4 35825.3 35816.3 35807.3 35802.8 35793.7 35789.2 35780.2 35771.2 35762.2 35753.1 35744.1 35735.1 35730.6 35721.6 35708.1 35699.1 35685.6 35672.1 35663.1 35654.1 35640.7 35631.7 35622.7 35613.7 35604.7 35577.8 35546.5 35519.6 35488.3 35457 35434.7 35416.8 35381.2 35350 35314.4 35274.4 35261 35230 35203.4 35203.4 35203.4 35190.1 35181.2 35172.4 35159.1 35145.8 35145.8 35128.1 35110.4 35092.7 35075.1 35048.6 35026.5 35004.5 34982.5 34960.5 34938.5 34916.5 34894.5 34877 34859.4 34833.1 34798.1 34763 34728.1 34693.1 34653.9 34614.7 34575.5 34536.4 34497.3 34458.3 34415 34384.7 34358.8 34328.5 34298.3 34268.2 34242.3 34216.5 34186.4 34160.6 34134.9 34109.1 34079.1 34044.9 34015 33989.3 33950.9 33904 33865.7 33818.9 33776.4 33729.8 33683.2 33636.7 33611.3 33586 33560.7 33531.2 33497.6 33472.3 33447.1 33421.9 33388.4 33363.2
36330.5 36330.5 36330.5 36330.5 36330.5 36330.5 36335 36335 36335 36335 36335 36330.5 36330.5 36330.5 36330.5 36330.5 36330.5 36330.5 36330.5 36330.5 36330.5 36330.5 36330.5 36330.5 36330.5 36330.5 36330.5 36330.5 36330.5 36335 36335 36335 36335 36335 36335 36335 36335 36335 36335 36335 36335 36339.6 36339.6 36339.6 36339.6 36339.6 36339.6 36339.6 36339.6 36339.6 36344.2 36344.2 36348.8 36348.8 36348.8 36348.8 36348.8 36348.8 36348.8 36348.8 36348.8 36348.8 36348.8 36348.8 36348.8 36344.2 36344.2 36344.2 36344.2 36339.6 36339.6 36339.6 36339.6 36339.6 36335 36335 36335 36335 36335 36335 36330.5 36330.5 36325.9 36325.9 36321.3 36316.7 36321.3 36316.7 36316.7 36316.7 36316.7 36316.7 36316.7 36316.7 36316.7 36321.3 36321.3 36321.3 36321.3 36325.9 36325.9 36325.9 36325.9 36330.5 36330.5 36330.5 36330.5 36335 36335 36339.6 36339.6 36344.2 36339.6 36335 36335 36335 36335 36335 36335 36330.5 36330.5 36330.5 36330.5 36330.5 36330.5 36330.5 36330.5 36330.5 36330.5 36330.5 36330.5 36330.5 36330.5 36330.5 36335 36339.6 36344.2 36344.2 36348.8 36348.8 36348.8 36353.4 36358 36362.6 36371.8 36376.3 36380.9 36385.5 36390.1 36394.7 36399.3 36403.9 36403.9 36408.5 36413.1 36417.7 36422.3 36422.3 36426.9 36431.5 36436.1 36436.1 36436.1 36440.7 36445.3 36449.9 36449.9 36449.9 36454.5 36459.1 36463.7 36463.7 36463.7 36472.9 36482.1 36482.1 36491.3 36491.3 36495.9 36495.9 36495.9 36500.5 36505.1 36505.1 36505.1 36509.8 36509.8 36514.4 36519 36519 36523.6 36523.6 36532.8 36537.4 36542 36542 36546.7 36546.7 36551.3 36551.3 36551.3 36546.7 36542 36537.4 36537.4 36532.8 36528.2 36519 36509.8 36505.1 36495.9 36482.1 36472.9 36454.5 36436.1 36417.7 36390.1 36358 36303 36252.6 36202.3 36156.7 36106.5 36061 36038.3 36020.1 36001.9 35983.8 35965.6 35952 35943 35938.4 35933.9 35924.8 35920.3 35915.8 35915.8 35911.2 35906.7 35906.7 35902.2 35897.7 35893.1 35879.6 35866 35857 35847.9 35843.4 35838.9 35834.4 35834.4 35829.9 35820.8 35820.8 35811.8 35807.3 35807.3 35802.8 35802.8 35798.2 35802.8 35816.3 35825.3 35834.4 35847.9 35857 35866 35875 35879.6 35879.6 35879.6 35879.6 35879.6 35879.6 35866 35866 35861.5 35847.9 35843.4 35834.4 35825.3 35820.8 35816.3 35807.3 35798.2 35789.2 35775.7 35766.7 35762.2 35748.6 35744.1 35735.1 35721.6 35708.1 35699.1 35685.6 35676.6 35667.6 35658.6 35645.2 35631.7 35595.8 35559.9 35537.5 35506.2 35474.9 35457 35434.7 35416.8 35381.2 35345.5 35301 35287.7 35269.9 35238.9 35234.4 35230 35216.7 35203.4 35198.9 35185.6 35176.8 35167.9 35145.8 35128.1 35114.8 35097.2 35070.7 35048.6 35026.5 35004.5 34986.9 34960.5 34938.5 34920.9 34903.3 34881.4 34850.6 34815.6 34780.5 34745.5 34710.6 34671.3 34632.1 34592.9 34553.8 34514.7 34471.3 34432.3 34397.7 34367.4 34337.2 34307 34281.1 34255.2 34225.1 34199.3 34173.5 34147.7 34122 34092 34062 34027.8 34002.1 33968 33925.3 33878.4 33835.9 33793.4 33746.7 33700.1 33653.6 33619.8 33598.7 33569.2 33539.7 33510.2 33484.9 33455.5 33430.3 33400.9 33367.4
36348.8 36348.8 36353.4 36353.4 36353.4 36358 36358 36358 36358 36358 36358 36358 36358 36358 36353.4 36353.4 36353.4 36353.4 36353.4 36353.4 36353.4 36353.4 36348.8 36353.4 36353.4 36353.4 36353.4 36353.4 36358 36358 36358 36358 36358 36358 36362.6 36362.6 36362.6 36362.6 36362.6 36362.6 36362.6 36362.6 36362.6 36362.6 36362.6 36362.6 36362.6 36362.6 36362.6 36362.6 36362.6 36362.6 36367.2 36367.2 36371.8 36371.8 36371.8 36371.8 36371.8 36371.8 36371.8 36371.8 36371.8 36367.2 36367.2 36367.2 36367.2 36362.6 36362.6 36362.6 36362.6 36362.6 36362.6 36362.6 36362.6 36362.6 36358 36358 36358 36358 36358 36353.4 36348.8 36348.8 36348.8 36344.2 36344.2 36344.2 36344.2 36339.6 36344.2 36344.2 36344.2 36344.2 36344.2 36344.2 36344.2 36344.2 36348.8 36348.8 36348.8 36348.8 36348.8 36348.8 36348.8 36353.4 36358 36362.6 36362.6 36362.6 36362.6 36367.2 36362.6 36362.6 36362.6 36362.6 36362.6 36362.6 36362.6 36362.6 36358 36358 36353.4 36353.4 36353.4 36353.4 36353.4 36353.4 36358 36358 36358 36358 36358 36358 36362.6 36362.6 36362.6 36367.2 36371.8 36371.8 36376.3 36376.3 36380.9 36390.1 36390.1 36399.3 36403.9 36408.5 36413.1 36422.3 36422.3 36426.9 36431.5 36436.1 36436.1 36440.7 36445.3 36449.9 36449.9 36454.5 36454.5 36459.1 36459.1 36463.7 36463.7 36468.3 36472.9 36477.5 36482.1 36482.1 36482.1 36486.7 36491.3 36495.9 36500.5 36509.8 36509.8 36514.4 36519 36519 36523.6 36523.6 36523.6 36523.6 36528.2 36532.8 36537.4 36537.4 36537.4 36542 36546.7 36551.3 36555.9 36560.5 36565.1 36569.7 36574.4 36574.4 36574.4 36574.4 36574.4 36574.4 36569.7 36569.7 36565.1 36555.9 36555.9 36546.7 36537.4 36532.8 36523.6 36509.8 36500.5 36486.7 36468.3 36449.9 36422.3 36394.7 36353.4 36303 36257.2 36206.9 36156.7 36111.1 36070.1 36051.9 36029.2 36011 35997.4 35979.2 35965.6 35965.6 35956.6 35952 35947.5 35947.5 35947.5 35943 35938.4 35938.4 35933.9 35924.8 35924.8 35911.2 35902.2 35888.6 35875 35866 35861.5 35857 35852.4 35847.9 35847.9 35838.9 35834.4 35834.4 35829.9 35825.3 35820.8 35820.8 35829.9 35847.9 35852.4 35866 35879.6 35888.6 35897.7 35906.7 35911.2 35911.2 35911.2 35911.2 35911.2 35902.2 35893.1 35893.1 35888.6 35884.1 35879.6 35870.5 35861.5 35852.4 35847.9 35838.9 35829.9 35820.8 35807.3 35798.2 35793.7 35780.2 35771.2 35762.2 35753.1 35744.1 35730.6 35721.6 35708.1 35703.6 35690.1 35685.6 35649.6 35613.7 35577.8 35555.4 35528.6 35497.2 35474.9 35457 35434.7 35407.9 35372.2 35332.2 35314.4 35301 35274.4 35269.9 35256.6 35238.9 35230 35221.1 35216.7 35203.4 35185.6 35167.9 35145.8 35132.5 35119.3 35097.2 35075.1 35048.6 35026.5 35004.5 34986.9 34964.9 34947.3 34925.3 34898.9 34863.8 34833.1 34798.1 34763 34723.7 34688.8 34649.5 34610.3 34566.8 34532 34493 34453.9 34410.6 34380.4 34350.1 34319.9 34294 34268.2 34238 34212.2 34186.4 34160.6 34134.9 34104.8 34074.9 34040.6 34015 33985 33942.4 33899.7 33852.9 33810.4 33763.7 33717.1 33670.5 33632.5 33607.1 33577.6 33552.3 33518.6 33489.1 33468.1 33438.7 33409.3 33375.8
36371.8 36371.8 36376.3 36376.3 36376.3 36376.3 36376.3 36376.3 36376.3 36376.3 36376.3 36376.3 36376.3 36376.3 36376.3 36376.3 36376.3 36376.3 36376.3 36376.3 36376.3 36376.3 36376.3 36376.3 36376.3 36376.3 36376.3 36376.3 36376.3 36376.3 36376.3 36376.3 36380.9 36380.9 36380.9 36380.9 36380.9 36380.9 36380.9 36380.9 36380.9 36380.9 36380.9 36380.9 36380.9 36380.9 36380.9 36380.9 36385.5 36385.5 36385.5 36390.1 36390.1 36390.1 36390.1 36390.1 36390.1 36390.1 36390.1 36390.1 36394.7 36390.1 36390.1 36390.1 36390.1 36390.1 36390.1 36390.1 36390.1 36390.1 36385.5 36385.5 36385.5 36385.5 36385.5 36380.9 36380.9 36380.9 36380.9 36380.9 36380.9 36376.3 36376.3 36371.8 36371.8 36367.2 36367.2 36362.6 36362.6 36362.6 36362.6 36362.6 36362.6 36362.6 36362.6 36367.2 36367.2 36367.2 36367.2 36367.2 36367.2 36371.8 36371.8 36371.8 36376.3 36376.3 36380.9 36380.9 36385.5 36390.1 36390.1 36390.1 36390.1 36390.1 36390.1 36390.1 36390.1 36385.5 36385.5 36385.5 36385.5 36380.9 36380.9 36376.3 36376.3 36376.3 36376.3 36376.3 36380.9 36380.9 36380.9 36380.9 36380.9 36385.5 36385.5 36390.1 36390.1 36390.1 36390.1 36394.7 36399.3 36403.9 36403.9 36413.1 36417.7 36422.3 36426.9 36436.1 36436.1 36445.3 36449.9 36449.9 36449.9 36454.5 36463.7 36463.7 36463.7 36468.3 36472.9 36477.5 36482.1 36482.1 36482.1 36486.7 36491.3 36495.9 36495.9 36495.9 36500.5 36505.1 36509.8 36509.8 36514.4 36519 36523.6 36528.2 36532.8 36537.4 36537.4 36537.4 36542 36546.7 36546.7 36551.3 36551.3 36555.9 36555.9 36560.5 36565.1 36569.7 36569.7 36569.7 36579 36583.6 36588.2 36592.8 36597.4 36602.1 36602.1 36602.1 36602.1 36602.1 36597.4 36597.4 36592.8 36583.6 36583.6 36574.4 36569.7 36560.5 36555.9 36542 36532.8 36519 36500.5 36482.1 36459.1 36431.5 36399.3 36353.4 36303 36257.2 36206.9 36161.2 36111.1 36083.8 36061 36042.8 36024.6 36011 35997.4 35988.3 35983.8 35979.2 35974.7 35974.7 35979.2 35974.7 35970.2 35965.6 35961.1 35956.6 35952 35943 35933.9 35915.8 35906.7 35893.1 35884.1 35879.6 35879.6 35870.5 35866 35866 35857 35852.4 35847.9 35847.9 35843.4 35843.4 35857 35875 35884.1 35893.1 35906.7 35920.3 35929.4 35938.4 35943 35947.5 35943 35947.5 35938.4 35929.4 35924.8 35920.3 35915.8 35911.2 35911.2 35902.2 35893.1 35888.6 35879.6 35870.5 35861.5 35847.9 35838.9 35834.4 35820.8 35811.8 35802.8 35793.7 35784.7 35775.7 35762.2 35753.1 35739.6 35735.1 35726.1 35703.6 35667.6 35631.7 35595.8 35573.4 35546.5 35515.1 35497.2 35474.9 35452.5 35434.7 35399 35358.9 35341.1 35327.7 35309.9 35296.6 35278.8 35261 35247.7 35243.3 35234.4 35225.5 35203.4 35185.6 35163.5 35150.2 35137 35119.3 35097.2 35075.1 35048.6 35030.9 35013.3 34991.3 34969.3 34947.3 34916.5 34881.4 34850.6 34815.6 34780.5 34741.2 34706.2 34667 34627.7 34588.5 34549.4 34510.3 34471.3 34428 34393.3 34363.1 34332.9 34302.6 34276.8 34250.9 34220.8 34199.3 34173.5 34147.7 34117.7 34087.7 34057.7 34027.8 34002.1 33959.4 33916.8 33869.9 33823.1 33780.7 33734 33687.4 33645.1 33619.8 33590.2 33564.9 33527 33497.6 33472.3 33447.1 33417.7 33384.2
36390.1 36390.1 36394.7 36394.7 36394.7 36399.3 36399.3 36399.3 36399.3 36399.3 36403.9 36399.3 36399.3 36399.3 36399.3 36399.3 36399.3 36394.7 36394.7 36394.7 36394.7 36394.7 36394.7 36394.7 36394.7 36394.7 36399.3 36399.3 36399.3 36399.3 36399.3 36403.9 36403.9 36403.9 36403.9 36403.9 36403.9 36403.9 36403.9 36403.9 36403.9 36403.9 36403.9 36403.9 36403.9 36403.9 36403.9 36403.9 36403.9 36403.9 36408.5 36408.5 36413.1 36413.1 36413.1 36413.1 36413.1 36413.1 36417.7 36417.7 36417.7 36417.7 36417.7 36417.7 36413.1 36413.1 36413.1 36413.1 36408.5 36408.5 36408.5 36408.5 36408.5 36408.5 36403.9 36403.9 36403.9 36403.9 36403.9 36403.9 36403.9 36403.9 36399.3 36394.7 36390.1 36390.1 36390.1 36390.1 36390.1 36385.5 36390.1 36390.1 36390.1 36390.1 36390.1 36390.1 36390.1 36390.1 36390.1 36390.1 36390.1 36390.1 36390.1 36394.7 36394.7 36399.3 36403.9 36403.9 36408.5 36408.5 36413.1 36417.7 36413.1 36413.1 36413.1 36413.1 36413.1 36413.1 36408.5 36408.5 36408.5 36403.9 36403.9 36403.9 36403.9 36403.9 36403.9 36403.9 36403.9 36403.9 36403.9 36403.9 36408.5 36408.5 36408.5 36413.1 36413.1 36417.7 36417.7 36422.3 36422.3 36426.9 36431.5 36436.1 36440.7 36449.9 36449.9 36454.5 36463.7 36463.7 36468.3 36472.9 36477.5 36482.1 36482.1 36486.7 36491.3 36495.9 36495.9 36500.5 36500.5 36505.1 36509.8 36509.8 36509.8 36514.4 36519 36523.6 36523.6 36528.2 36528.2 36532.8 36537.4 36542 36546.7 36555.9 36555.9 36555.9 36560.5 36565.1 36565.1 36569.7 36569.7 36569.7 36574.4 36579 36583.6 36583.6 36588.2 36588.2 36592.8 36597.4 36602.1 36606.7 36611.3 36615.9 36620.6 36625.2 36629.8 36629.8 36629.8 36629.8 36625.2 36625.2 36620.6 36611.3 36611.3 36602.1 36597.4 36592.8 36583.6 36569.7 36560.5 36551.3 36532.8 36514.4 36495.9 36463.7 36436.1 36403.9 36353.4 36303 36257.2 36211.5 36161.2 36115.6 36092.9 36070.1 36056.5 36042.8 36029.2 36020.1 36011 36006.5 36001.9 36006.5 36011 36006.5 36001.9 36001.9 35997.4 35988.3 35983.8 35974.7 35961.1 35947.5 35933.9 35924.8 35906.7 35902.2 35897.7 35893.1 35888.6 35884.1 35879.6 35875 35870.5 35866 35866 35866 35884.1 35902.2 35911.2 35924.8 35938.4 35952 35965.6 35970.2 35970.2 35974.7 35979.2 35979.2 35965.6 35956.6 35947.5 35947.5 35943 35938.4 35938.4 35938.4 35929.4 35924.8 35911.2 35902.2 35893.1 35879.6 35870.5 35866 35852.4 35843.4 35834.4 35825.3 35816.3 35807.3 35798.2 35789.2 35775.7 35766.7 35753.1 35721.6 35685.6 35649.6 35613.7 35591.3 35568.9 35537.5 35519.6 35497.2 35470.4 35457 35425.8 35390.1 35367.8 35354.4 35336.6 35318.8 35301 35283.3 35274.4 35265.5 35261 35243.3 35225.5 35203.4 35185.6 35172.4 35154.6 35141.4 35119.3 35097.2 35075.1 35053 35030.9 35013.3 34991.3 34960.5 34929.7 34898.9 34863.8 34833.1 34793.7 34758.7 34723.7 34684.4 34645.2 34606 34566.8 34527.7 34484.3 34441 34402 34371.7 34345.8 34319.9 34289.7 34263.8 34233.7 34207.9 34182.1 34156.3 34130.6 34100.6 34070.6 34040.6 34015 33976.5 33933.8 33887 33844.4 33797.7 33751 33700.1 33657.8 33632.5 33602.9 33573.4 33539.7 33510.2 33484.9 33455.5 33426.1 33392.6
36413.1 36413.1 36417.7 36417.7 36417.7 36422.3 36422.3 36422.3 36422.3 36422.3 36422.3 36422.3 36422.3 36422.3 36422.3 36422.3 36422.3 36422.3 36422.3 36422.3 36417.7 36417.7 36417.7 36417.7 36417.7 36417.7 36422.3 36422.3 36422.3 36422.3 36422.3 36422.3 36422.3 36422.3 36422.3 36422.3 36422.3 36422.3 36422.3 36422.3 36426.9 36426.9 36426.9 36426.9 36426.9 36426.9 36426.9 36426.9 36426.9 36426.9 36431.5 36431.5 36436.1 36436.1 36436.1 36436.1 36436.1 36436.1 36436.1 36436.1 36440.7 36440.7 36436.1 36436.1 36436.1 36436.1 36436.1 36436.1 36436.1 36436.1 36436.1 36436.1 36431.5 36431.5 36431.5 36431.5 36431.5 36431.5 36431.5 36431.5 36426.9 36422.3 36422.3 36422.3 36417.7 36417.7 36413.1 36413.1 36408.5 36408.5 36408.5 36408.5 36408.5 36408.5 36408.5 36413.1 36413.1 36413.1 36413.1 36413.1 36413.1 36413.1 36417.7 36417.7 36422.3 36422.3 36422.3 36426.9 36431.5 36436.1 36436.1 36440.7 36436.1 36436.1 36440.7 36440.7 36436.1 36436.1 36436.1 36436.1 36436.1 36436.1 36431.5 36431.5 36431.5 36431.5 36431.5 36431.5 36431.5 36431.5 36431.5 36431.5 36436.1 36436.1 36436.1 36436.1 36436.1 36440.7 36440.7 36445.3 36449.9 36449.9 36454.5 36463.7 36463.7 36468.3 36477.5 36482.1 36486.7 36491.3 36495.9 36495.9 36500.5 36505.1 36509.8 36509.8 36509.8 36514.4 36519 36523.6 36523.6 36523.6 36528.2 36532.8 36537.4 36537.4 36537.4 36542 36546.7 36551.3 36555.9 36555.9 36560.5 36565.1 36569.7 36574.4 36579 36583.6 36583.6 36583.6 36588.2 36588.2 36592.8 36597.4 36597.4 36597.4 36602.1 36606.7 36611.3 36611.3 36615.9 36620.6 36625.2 36629.8 36634.4 36639.1 36643.7 36648.3 36653 36657.6 36657.6 36657.6 36653 36653 36648.3 36643.7 36639.1 36634.4 36629.8 36620.6 36611.3 36602.1 36592.8 36583.6 36565.1 36546.7 36523.6 36495.9 36472.9 36440.7 36403.9 36353.4 36303 36257.2 36216 36170.4 36124.8 36102 36088.3 36074.7 36061 36051.9 36038.3 36029.2 36033.7 36038.3 36038.3 36038.3 36033.7 36033.7 36029.2 36024.6 36015.6 36006.5 35992.9 35979.2 35965.6 35952 35938.4 35924.8 35920.3 35915.8 35911.2 35906.7 35902.2 35897.7 35893.1 35893.1 35888.6 35893.1 35911.2 35929.4 35938.4 35956.6 35970.2 35983.8 35997.4 35997.4 36001.9 36006.5 36006.5 36001.9 35997.4 35983.8 35974.7 35970.2 35965.6 35961.1 35961.1 35961.1 35961.1 35952 35943 35933.9 35924.8 35911.2 35902.2 35893.1 35884.1 35875 35866 35857 35847.9 35834.4 35829.9 35820.8 35807.3 35802.8 35771.2 35735.1 35703.6 35667.6 35631.7 35609.2 35586.8 35559.9 35537.5 35515.1 35488.3 35474.9 35452.5 35416.8 35394.5 35376.7 35358.9 35345.5 35327.7 35305.5 35296.6 35287.7 35278.8 35261 35243.3 35221.1 35203.4 35190.1 35176.8 35159.1 35145.8 35119.3 35097.2 35075.1 35057.4 35035.4 35013.3 34978.1 34947.3 34912.1 34881.4 34850.6 34811.2 34776.2 34741.2 34701.9 34662.6 34623.4 34584.2 34540.7 34497.3 34458.3 34415 34389 34358.8 34328.5 34302.6 34276.8 34250.9 34220.8 34195 34169.2 34143.5 34113.4 34083.4 34057.7 34027.8 33993.6 33946.6 33904 33861.4 33814.6 33767.9 33717.1 33670.5 33640.9 33611.3 33581.8 33548.1 33514.4 33489.1 33463.9 33430.3 33400.9
36436.1 36436.1 36436.1 36436.1 36436.1 36440.7 36440.7 36440.7 36440.7 36445.3 36445.3 36445.3 36445.3 36445.3 36440.7 36440.7 36440.7 36440.7 36440.7 36440.7 36440.7 36436.1 36436.1 36436.1 36436.1 36440.7 36440.7 36440.7 36440.7 36445.3 36445.3 36445.3 36445.3 36445.3 36445.3 36445.3 36445.3 36445.3 36445.3 36449.9 36449.9 36449.9 36449.9 36449.9 36449.9 36449.9 36449.9 36449.9 36449.9 36449.9 36449.9 36454.5 36454.5 36459.1 36459.1 36459.1 36459.1 36459.1 36463.7 36463.7 36463.7 36463.7 36463.7 36463.7 36459.1 36459.1 36459.1 36459.1 36459.1 36454.5 36454.5 36454.5 36454.5 36454.5 36454.5 36449.9 36449.9 36449.9 36449.9 36449.9 36449.9 36449.9 36445.3 36440.7 36440.7 36436.1 36436.1 36436.1 36436.1 36431.5 36436.1 36436.1 36436.1 36436.1 36436.1 36436.1 36436.1 36436.1 36436.1 36436.1 36436.1 36436.1 36436.1 36436.1 36440.7 36445.3 36449.9 36449.9 36454.5 36459.1 36463.7 36463.7 36463.7 36463.7 36463.7 36463.7 36463.7 36463.7 36463.7 36463.7 36459.1 36459.1 36459.1 36459.1 36454.5 36454.5 36454.5 36454.5 36454.5 36454.5 36454.5 36459.1 36459.1 36459.1 36459.1 36463.7 36463.7 36463.7 36463.7 36468.3 36468.3 36477.5 36482.1 36486.7 36491.3 36495.9 36500.5 36505.1 36509.8 36514.4 36519 36523.6 36523.6 36523.6 36528.2 36532.8 36537.4 36537.4 36542 36542 36546.7 36551.3 36551.3 36555.9 36555.9 36560.5 36565.1 36569.7 36569.7 36574.4 36574.4 36579 36583.6 36588.2 36592.8 36597.4 36597.4 36602.1 36606.7 36606.7 36611.3 36611.3 36611.3 36615.9 36620.6 36620.6 36629.8 36629.8 36634.4 36639.1 36643.7 36643.7 36648.3 36657.6 36657.6 36662.2 36666.8 36671.5 36676.1 36676.1 36680.7 36685.4 36680.7 36680.7 36676.1 36671.5 36666.8 36662.2 36657.6 36648.3 36643.7 36629.8 36625.2 36611.3 36597.4 36579 36560.5 36532.8 36509.8 36482.1 36449.9 36403.9 36353.4 36307.5 36261.8 36216 36170.4 36133.9 36120.2 36106.5 36097.4 36083.8 36070.1 36065.6 36065.6 36070.1 36070.1 36070.1 36070.1 36070.1 36065.6 36056.5 36051.9 36038.3 36024.6 36011 35997.4 35979.2 35965.6 35952 35943 35938.4 35933.9 35929.4 35924.8 35920.3 35915.8 35911.2 35906.7 35924.8 35938.4 35956.6 35970.2 35988.3 36001.9 36015.6 36024.6 36029.2 36033.7 36033.7 36038.3 36024.6 36020.1 36011 36001.9 35997.4 35997.4 35988.3 35983.8 35983.8 35988.3 35983.8 35974.7 35965.6 35952 35943 35933.9 35924.8 35915.8 35906.7 35893.1 35888.6 35875 35866 35857 35847.9 35843.4 35820.8 35784.7 35748.6 35721.6 35690.1 35649.6 35627.2 35604.7 35577.8 35555.4 35533 35506.2 35488.3 35474.9 35443.6 35421.3 35403.5 35376.7 35358.9 35345.5 35332.2 35318.8 35314.4 35296.6 35274.4 35261 35243.3 35221.1 35207.8 35194.5 35176.8 35163.5 35145.8 35119.3 35101.6 35079.5 35061.8 35030.9 34995.7 34960.5 34929.7 34898.9 34863.8 34828.7 34793.7 34758.7 34719.3 34680 34636.4 34597.2 34553.8 34514.7 34471.3 34428 34397.7 34367.4 34341.5 34315.6 34289.7 34263.8 34233.7 34207.9 34177.8 34156.3 34126.3 34096.3 34070.6 34040.6 34010.7 33968 33921 33878.4 33831.6 33780.7 33734 33687.4 33649.4 33619.8 33590.2 33560.7 33522.8 33497.6 33472.3 33442.9 33409.3
36454.5 36454.5 36454.5 36459.1 36459.1 36463.7 36463.7 36463.7 36463.7 36463.7 36463.7 36463.7 36463.7 36463.7 36463.7 36463.7 36463.7 36463.7 36463.7 36463.7 36463.7 36463.7 36459.1 36459.1 36459.1 36463.7 36463.7 36463.7 36463.7 36463.7 36463.7 36463.7 36463.7 36463.7 36468.3 36468.3 36468.3 36468.3 36468.3 36468.3 36468.3 36468.3 36472.9 36472.9 36472.9 36472.9 36472.9 36472.9 36472.9 36472.9 36477.5 36477.5 36477.5 36482.1 36482.1 36482.1 36482.1 36482.1 36482.1 36482.1 36486.7 36486.7 36486.7 36482.1 36482.1 36482.1 36482.1 36482.1 36482.1 36482.1 36482.1 36482.1 36482.1 36482.1 36477.5 36477.5 36477.5 36477.5 36477.5 36477.5 36477.5 36472.9 36468.3 36463.7 36463.7 36463.7 36463.7 36459.1 36459.1 36454.5 36454.5 36454.5 36454.5 36454.5 36459.1 36459.1 36459.1 36459.1 36459.1 36459.1 36459.1 36459.1 36459.1 36463.7 36463.7 36468.3 36468.3 36472.9 36482.1 36482.1 36482.1 36486.7 36491.3 36491.3 36491.3 36495.9 36491.3 36491.3 36486.7 36486.7 36486.7 36482.1 36482.1 36482.1 36482.1 36482.1 36482.1 36482.1 36482.1 36482.1 36482.1 36482.1 36482.1 36482.1 36486.7 36486.7 36486.7 36491.3 36491.3 36495.9 36495.9 36500.5 36505.1 36509.8 36514.4 36519 36523.6 36528.2 36532.8 36537.4 36537.4 36542 36546.7 36551.3 36555.9 36555.9 36560.5 36560.5 36565.1 36569.7 36569.7 36569.7 36574.4 36579 36583.6 36583.6 36583.6 36588.2 36592.8 36597.4 36597.4 36602.1 36606.7 36611.3 36615.9 36620.6 36625.2 36625.2 36629.8 36629.8 36629.8 36634.4 36639.1 36639.1 36643.7 36643.7 36648.3 36653 36657.6 36657.6 36666.8 36666.8 36676.1 36680.7 36685.4 36690 36690 36694.6 36699.3 36703.9 36703.9 36708.6 36708.6 36708.6 36703.9 36703.9 36699.3 36694.6 36690 36676.1 36671.5 36662.2 36653 36643.7 36629.8 36611.3 36597.4 36569.7 36542 36519 36486.7 36449.9 36403.9 36358 36312.1 36266.3 36225.2 36184 36152.1 36143 36124.8 36115.6 36102 36106.5 36102 36097.4 36097.4 36097.4 36097.4 36097.4 36097.4 36092.9 36083.8 36070.1 36051.9 36038.3 36024.6 36011 35997.4 35979.2 35965.6 35961.1 35956.6 35952 35947.5 35938.4 35938.4 35933.9 35938.4 35952 35970.2 35983.8 36001.9 36020.1 36038.3 36051.9 36051.9 36056.5 36061 36065.6 36061 36047.4 36042.8 36038.3 36029.2 36024.6 36020.1 36011 36011 36011 36011 36011 36006.5 35997.4 35983.8 35974.7 35965.6 35952 35943 35938.4 35924.8 35915.8 35906.7 35893.1 35888.6 35879.6 35870.5 35834.4 35802.8 35766.7 35735.1 35703.6 35667.6 35645.2 35618.2 35595.8 35573.4 35546.5 35524.1 35506.2 35492.8 35470.4 35448.1 35425.8 35399 35381.2 35372.2 35354.4 35341.1 35332.2 35314.4 35292.1 35278.8 35261 35243.3 35230 35212.2 35194.5 35181.2 35167.9 35145.8 35123.7 35101.6 35075.1 35044.2 35008.9 34978.1 34947.3 34916.5 34881.4 34846.2 34806.8 34776.2 34736.8 34693.1 34653.9 34610.3 34566.8 34527.7 34484.3 34445.3 34410.6 34380.4 34350.1 34328.5 34302.6 34272.5 34246.6 34220.8 34195 34169.2 34139.2 34109.1 34083.4 34057.7 34027.8 33985 33938.1 33891.2 33848.7 33797.7 33751 33700.1 33657.8 33632.5 33602.9 33569.2 33535.4 33510.2 33480.7 33451.3 33417.7
36477.5 36477.5 36477.5 36482.1 36482.1 36482.1 36482.1 36482.1 36482.1 36486.7 36486.7 36486.7 36486.7 36486.7 36486.7 36486.7 36486.7 36482.1 36482.1 36482.1 36482.1 36482.1 36482.1 36482.1 36482.1 36482.1 36482.1 36482.1 36486.7 36486.7 36486.7 36486.7 36486.7 36491.3 36491.3 36491.3 36491.3 36491.3 36491.3 36491.3 36491.3 36495.9 36495.9 36495.9 36495.9 36495.9 36495.9 36495.9 36495.9 36495.9 36495.9 36495.9 36500.5 36500.5 36505.1 36505.1 36505.1 36505.1 36509.8 36509.8 36509.8 36509.8 36509.8 36509.8 36509.8 36505.1 36505.1 36505.1 36505.1 36505.1 36505.1 36500.5 36500.5 36500.5 36500.5 36500.5 36500.5 36500.5 36500.5 36500.5 36500.5 36495.9 36495.9 36491.3 36486.7 36486.7 36486.7 36482.1 36482.1 36482.1 36482.1 36482.1 36482.1 36482.1 36482.1 36482.1 36482.1 36482.1 36482.1 36482.1 36482.1 36482.1 36482.1 36482.1 36486.7 36491.3 36495.9 36495.9 36500.5 36505.1 36509.8 36509.8 36514.4 36519 36519 36519 36519 36514.4 36514.4 36509.8 36509.8 36509.8 36509.8 36509.8 36509.8 36509.8 36509.8 36509.8 36509.8 36509.8 36509.8 36509.8 36509.8 36509.8 36509.8 36509.8 36509.8 36514.4 36514.4 36519 36523.6 36523.6 36528.2 36532.8 36537.4 36542 36546.7 36551.3 36555.9 36560.5 36565.1 36569.7 36569.7 36569.7 36574.4 36579 36583.6 36583.6 36588.2 36588.2 36592.8 36597.4 36597.4 36597.4 36602.1 36606.7 36611.3 36611.3 36615.9 36620.6 36625.2 36629.8 36629.8 36634.4 36639.1 36643.7 36643.7 36648.3 36648.3 36653 36657.6 36657.6 36657.6 36662.2 36666.8 36671.5 36671.5 36676.1 36680.7 36685.4 36690 36690 36699.3 36703.9 36703.9 36708.6 36717.8 36717.8 36722.5 36722.5 36727.1 36731.7 36731.7 36736.4 36731.7 36731.7 36727.1 36722.5 36717.8 36708.6 36703.9 36694.6 36685.4 36671.5 36657.6 36643.7 36629.8 36606.7 36583.6 36555.9 36523.6 36491.3 36449.9 36403.9 36362.6 36321.3 36280.1 36238.9 36202.3 36170.4 36156.7 36147.6 36143 36147.6 36143 36143 36138.4 36133.9 36133.9 36133.9 36129.3 36124.8 36111.1 36097.4 36083.8 36070.1 36051.9 36042.8 36024.6 36011 35997.4 35979.2 35979.2 35970.2 35965.6 35965.6 35961.1 35956.6 35965.6 35983.8 36001.9 36015.6 36038.3 36051.9 36070.1 36083.8 36083.8 36088.3 36092.9 36092.9 36083.8 36070.1 36065.6 36061 36056.5 36051.9 36042.8 36038.3 36033.7 36038.3 36033.7 36029.2 36029.2 36024.6 36015.6 36006.5 35997.4 35983.8 35974.7 35965.6 35956.6 35947.5 35933.9 35924.8 35915.8 35906.7 35888.6 35852.4 35820.8 35784.7 35753.1 35721.6 35690.1 35663.1 35636.2 35613.7 35591.3 35564.4 35542 35524.1 35510.7 35492.8 35474.9 35448.1 35416.8 35403.5 35390.1 35376.7 35363.3 35350 35332.2 35309.9 35296.6 35278.8 35261 35247.7 35230 35212.2 35198.9 35190.1 35167.9 35145.8 35123.7 35088.3 35061.8 35026.5 34991.3 34960.5 34929.7 34898.9 34863.8 34824.3 34793.7 34754.3 34710.6 34667 34623.4 34584.2 34540.7 34497.3 34458.3 34419.3 34389 34363.1 34337.2 34311.3 34285.4 34259.5 34233.7 34203.6 34177.8 34156.3 34126.3 34096.3 34070.6 34040.6 34002.1 33955.2 33908.3 33865.7 33810.4 33763.7 33712.8 33674.7 33645.1 33615.6 33577.6 33543.9 33514.4 33489.1 33455.5 33426.1
36495.9 36495.9 36495.9 36500.5 36500.5 36505.1 36505.1 36505.1 36505.1 36509.8 36509.8 36509.8 36509.8 36509.8 36509.8 36509.8 36509.8 36509.8 36509.8 36505.1 36505.1 36505.1 36505.1 36505.1 36505.1 36505.1 36505.1 36505.1 36509.8 36509.8 36509.8 36509.8 36509.8 36509.8 36509.8 36509.8 36509.8 36509.8 36509.8 36509.8 36514.4 36514.4 36514.4 36519 36519 36519 36519 36519 36519 36519 36523.6 36523.6 36523.6 36523.6 36523.6 36523.6 36523.6 36528.2 36528.2 36528.2 36528.2 36532.8 36532.8 36528.2 36528.2 36528.2 36528.2 36528.2 36528.2 36523.6 36523.6 36523.6 36523.6 36523.6 36523.6 36523.6 36523.6 36523.6 36523.6 36523.6 36523.6 36523.6 36519 36514.4 36509.8 36509.8 36509.8 36509.8 36505.1 36505.1 36500.5 36500.5 36500.5 36500.5 36505.1 36505.1 36505.1 36505.1 36505.1 36500.5 36500.5 36505.1 36505.1 36509.8 36509.8 36514.4 36514.4 36523.6 36523.6 36528.2 36532.8 36537.4 36537.4 36537.4 36542 36542 36542 36542 36537.4 36537.4 36537.4 36537.4 36537.4 36537.4 36537.4 36537.4 36532.8 36532.8 36532.8 36532.8 36532.8 36532.8 36532.8 36532.8 36537.4 36537.4 36537.4 36537.4 36537.4 36542 36546.7 36551.3 36555.9 36560.5 36565.1 36569.7 36569.7 36574.4 36579 36583.6 36588.2 36592.8 36592.8 36597.4 36597.4 36602.1 36606.7 36606.7 36611.3 36611.3 36611.3 36615.9 36620.6 36625.2 36629.8 36629.8 36629.8 36634.4 36639.1 36643.7 36643.7 36648.3 36653 36657.6 36662.2 36662.2 36666.8 36671.5 36671.5 36671.5 36676.1 36680.7 36685.4 36685.4 36690 36690 36694.6 36699.3 36703.9 36708.6 36713.2 36717.8 36722.5 36727.1 36731.7 36731.7 36736.4 36741 36745.7 36745.7 36750.3 36755 36755 36759.6 36764.2 36759.6 36755 36750.3 36745.7 36741 36736.4 36727.1 36717.8 36703.9 36690 36676.1 36662.2 36643.7 36615.9 36592.8 36560.5 36528.2 36495.9 36459.1 36417.7 36376.3 36335 36298.4 36257.2 36216 36188.6 36184 36184 36184 36184 36184 36179.5 36174.9 36170.4 36165.8 36165.8 36156.7 36143 36129.3 36115.6 36097.4 36083.8 36070.1 36056.5 36038.3 36024.6 36011 35997.4 35997.4 35988.3 35983.8 35979.2 35979.2 35997.4 36015.6 36033.7 36051.9 36070.1 36083.8 36102 36111.1 36111.1 36115.6 36120.2 36120.2 36106.5 36097.4 36088.3 36083.8 36079.2 36074.7 36070.1 36061 36061 36061 36056.5 36051.9 36051.9 36051.9 36047.4 36038.3 36024.6 36015.6 36006.5 35997.4 35983.8 35974.7 35965.6 35952 35947.5 35938.4 35902.2 35870.5 35834.4 35798.2 35771.2 35739.6 35703.6 35676.6 35658.6 35631.7 35609.2 35582.3 35559.9 35542 35528.6 35510.7 35492.8 35465.9 35439.2 35421.3 35407.9 35399 35385.6 35367.8 35345.5 35327.7 35314.4 35296.6 35278.8 35265.5 35247.7 35230 35216.7 35203.4 35190.1 35167.9 35137 35101.6 35075.1 35044.2 35008.9 34978.1 34947.3 34916.5 34877 34841.9 34806.8 34767.4 34723.7 34680 34640.8 34597.2 34553.8 34514.7 34471.3 34432.3 34402 34376.1 34350.1 34324.2 34298.3 34272.5 34242.3 34216.5 34195 34169.2 34139.2 34109.1 34083.4 34053.5 34015 33972.2 33925.3 33878.4 33827.4 33780.7 33729.8 33683.2 33653.6 33624 33590.2 33552.3 33522.8 33497.6 33468.1 33434.5
36519 36519 36519 36523.6 36523.6 36523.6 36523.6 36523.6 36523.6 36528.2 36528.2 36528.2 36528.2 36528.2 36528.2 36528.2 36528.2 36528.2 36528.2 36528.2 36528.2 36523.6 36523.6 36523.6 36523.6 36523.6 36523.6 36528.2 36528.2 36528.2 36528.2 36528.2 36532.8 36532.8 36532.8 36532.8 36532.8 36532.8 36532.8 36537.4 36537.4 36537.4 36537.4 36537.4 36537.4 36537.4 36537.4 36537.4 36537.4 36542 36542 36542 36546.7 36546.7 36546.7 36551.3 36551.3 36551.3 36551.3 36555.9 36555.9 36555.9 36555.9 36555.9 36555.9 36551.3 36551.3 36551.3 36551.3 36551.3 36551.3 36551.3 36551.3 36546.7 36546.7 36546.7 36546.7 36546.7 36546.7 36546.7 36546.7 36542 36542 36537.4 36537.4 36532.8 36532.8 36532.8 36528.2 36528.2 36523.6 36523.6 36523.6 36523.6 36523.6 36523.6 36528.2 36528.2 36523.6 36523.6 36523.6 36523.6 36523.6 36528.2 36532.8 36537.4 36537.4 36542 36546.7 36551.3 36555.9 36555.9 36560.5 36560.5 36569.7 36569.7 36569.7 36569.7 36569.7 36565.1 36565.1 36560.5 36560.5 36560.5 36560.5 36560.5 36560.5 36555.9 36555.9 36555.9 36555.9 36555.9 36555.9 36560.5 36560.5 36560.5 36565.1 36565.1 36565.1 36569.7 36569.7 36574.4 36579 36583.6 36583.6 36592.8 36597.4 36597.4 36602.1 36606.7 36611.3 36611.3 36615.9 36620.6 36620.6 36625.2 36629.8 36629.8 36629.8 36634.4 36639.1 36643.7 36643.7 36643.7 36648.3 36653 36657.6 36657.6 36662.2 36666.8 36671.5 36671.5 36676.1 36680.7 36685.4 36690 36690 36690 36694.6 36699.3 36703.9 36703.9 36703.9 36708.6 36713.2 36713.2 36717.8 36722.5 36727.1 36731.7 36731.7 36741 36745.7 36750.3 36755 36759.6 36764.2 36764.2 36768.9 36773.5 36778.2 36778.2 36778.2 36782.8 36782.8 36787.5 36787.5 36782.8 36778.2 36768.9 36768.9 36764.2 36745.7 36736.4 36722.5 36708.6 36699.3 36676.1 36653 36629.8 36597.4 36569.7 36542 36514.4 36472.9 36436.1 36390.1 36353.4 36312.1 36275.5 36234.3 36220.6 36225.2 36229.7 36229.7 36225.2 36225.2 36220.6 36216 36206.9 36197.8 36184 36174.9 36161.2 36147.6 36129.3 36115.6 36102 36083.8 36070.1 36051.9 36038.3 36024.6 36015.6 36011 36006.5 36001.9 36006.5 36029.2 36047.4 36065.6 36083.8 36106.5 36124.8 36138.4 36143 36143 36147.6 36147.6 36143 36129.3 36115.6 36111.1 36106.5 36097.4 36097.4 36092.9 36088.3 36083.8 36083.8 36079.2 36079.2 36074.7 36074.7 36070.1 36070.1 36051.9 36042.8 36038.3 36024.6 36015.6 36006.5 35992.9 35979.2 35974.7 35952 35920.3 35884.1 35847.9 35816.3 35784.7 35757.6 35721.6 35699.1 35672.1 35645.2 35622.7 35604.7 35573.4 35559.9 35546.5 35528.6 35510.7 35488.3 35461.5 35439.2 35430.2 35416.8 35403.5 35385.6 35358.9 35345.5 35327.7 35314.4 35301 35283.3 35265.5 35247.7 35234.4 35221.1 35212.2 35190.1 35154.6 35119.3 35088.3 35057.4 35022.1 34991.3 34960.5 34929.7 34894.5 34859.4 34820 34780.5 34741.2 34697.5 34653.9 34610.3 34566.8 34527.7 34484.3 34445.3 34415 34389 34358.8 34332.9 34307 34281.1 34255.2 34225.1 34207.9 34182.1 34152 34126.3 34096.3 34066.3 34032.1 33989.3 33942.4 33891.2 33844.4 33793.4 33742.5 33691.7 33662.1 33632.5 33598.7 33564.9 33535.4 33506 33472.3 33442.9
36537.4 36537.4 36537.4 36542 36542 36542 36546.7 36546.7 36546.7 36551.3 36551.3 36551.3 36551.3 36551.3 36551.3 36551.3 36551.3 36551.3 36551.3 36551.3 36551.3 36551.3 36546.7 36546.7 36546.7 36546.7 36546.7 36551.3 36551.3 36551.3 36551.3 36555.9 36555.9 36555.9 36555.9 36555.9 36555.9 36555.9 36555.9 36555.9 36555.9 36560.5 36560.5 36560.5 36560.5 36560.5 36560.5 36560.5 36565.1 36565.1 36565.1 36569.7 36569.7 36569.7 36569.7 36569.7 36569.7 36574.4 36574.4 36574.4 36574.4 36579 36579 36579 36574.4 36574.4 36574.4 36574.4 36574.4 36574.4 36574.4 36569.7 36569.7 36569.7 36569.7 36569.7 36569.7 36569.7 36569.7 36569.7 36569.7 36569.7 36565.1 36560.5 36560.5 36555.9 36555.9 36555.9 36555.9 36551.3 36551.3 36551.3 36551.3 36551.3 36551.3 36551.3 36551.3 36551.3 36551.3 36546.7 36546.7 36546.7 36551.3 36555.9 36555.9 36560.5 36560.5 36569.7 36569.7 36574.4 36579 36583.6 36583.6 36583.6 36588.2 36592.8 36597.4 36597.4 36592.8 36588.2 36588.2 36583.6 36583.6 36583.6 36583.6 36583.6 36583.6 36583.6 36583.6 36583.6 36583.6 36583.6 36583.6 36583.6 36583.6 36583.6 36588.2 36588.2 36588.2 36592.8 36597.4 36597.4 36602.1 36606.7 36611.3 36611.3 36620.6 36625.2 36629.8 36629.8 36634.4 36639.1 36639.1 36643.7 36643.7 36648.3 36653 36653 36657.6 36657.6 36657.6 36662.2 36666.8 36671.5 36671.5 36671.5 36676.1 36680.7 36685.4 36690 36690 36694.6 36699.3 36703.9 36703.9 36708.6 36713.2 36717.8 36717.8 36717.8 36722.5 36727.1 36727.1 36731.7 36731.7 36736.4 36741 36745.7 36750.3 36755 36759.6 36764.2 36768.9 36773.5 36778.2 36778.2 36782.8 36787.5 36792.1 36792.1 36796.8 36801.4 36806.1 36806.1 36806.1 36810.7 36810.7 36810.7 36806.1 36806.1 36801.4 36796.8 36782.8 36768.9 36759.6 36745.7 36731.7 36713.2 36690 36662.2 36639.1 36611.3 36588.2 36560.5 36528.2 36491.3 36449.9 36408.5 36367.2 36339.6 36316.7 36303 36280.1 36270.9 36270.9 36270.9 36270.9 36266.3 36257.2 36252.6 36234.3 36216 36202.3 36193.2 36179.5 36161.2 36147.6 36129.3 36115.6 36102 36083.8 36070.1 36051.9 36038.3 36033.7 36024.6 36024.6 36038.3 36061 36083.8 36097.4 36120.2 36143 36156.7 36170.4 36170.4 36174.9 36174.9 36174.9 36165.8 36152.1 36143 36133.9 36124.8 36120.2 36115.6 36115.6 36111.1 36111.1 36106.5 36102 36097.4 36097.4 36097.4 36097.4 36092.9 36083.8 36074.7 36065.6 36051.9 36042.8 36033.7 36024.6 36011 35997.4 35965.6 35933.9 35902.2 35866 35834.4 35802.8 35775.7 35744.1 35717.1 35690.1 35663.1 35640.7 35618.2 35595.8 35573.4 35559.9 35546.5 35528.6 35506.2 35479.4 35461.5 35448.1 35439.2 35416.8 35403.5 35376.7 35358.9 35345.5 35332.2 35318.8 35301 35283.3 35265.5 35252.2 35238.9 35230 35203.4 35167.9 35132.5 35101.6 35075.1 35039.8 35004.5 34978.1 34947.3 34912.1 34877 34833.1 34793.7 34754.3 34710.6 34671.3 34627.7 34584.2 34540.7 34497.3 34458.3 34428 34402 34371.7 34345.8 34319.9 34294 34263.8 34238 34216.5 34195 34164.9 34139.2 34109.1 34079.1 34044.9 34002.1 33959.4 33908.3 33857.2 33810.4 33759.5 33704.4 33674.7 33645.1 33611.3 33573.4 33539.7 33514.4 33484.9 33451.3
36560.5 36560.5 36560.5 36565.1 36565.1 36565.1 36569.7 36569.7 36569.7 36569.7 36569.7 36569.7 36574.4 36574.4 36574.4 36574.4 36574.4 36569.7 36569.7 36569.7 36569.7 36569.7 36569.7 36569.7 36569.7 36569.7 36569.7 36569.7 36569.7 36569.7 36574.4 36574.4 36574.4 36574.4 36574.4 36579 36579 36579 36579 36579 36583.6 36583.6 36583.6 36583.6 36583.6 36583.6 36583.6 36583.6 36583.6 36583.6 36588.2 36588.2 36592.8 36592.8 36592.8 36597.4 36597.4 36597.4 36597.4 36597.4 36597.4 36597.4 36597.4 36597.4 36597.4 36597.4 36597.4 36597.4 36597.4 36597.4 36597.4 36597.4 36597.4 36597.4 36597.4 36592.8 36592.8 36592.8 36592.8 36592.8 36592.8 36592.8 36588.2 36583.6 36583.6 36583.6 36583.6 36579 36579 36574.4 36574.4 36569.7 36569.7 36569.7 36569.7 36569.7 36574.4 36574.4 36569.7 36569.7 36569.7 36569.7 36569.7 36579 36579 36583.6 36583.6 36588.2 36592.8 36597.4 36597.4 36602.1 36606.7 36606.7 36611.3 36611.3 36615.9 36615.9 36615.9 36615.9 36611.3 36611.3 36611.3 36611.3 36611.3 36611.3 36611.3 36611.3 36611.3 36611.3 36606.7 36606.7 36606.7 36611.3 36611.3 36611.3 36611.3 36611.3 36615.9 36615.9 36620.6 36625.2 36629.8 36629.8 36634.4 36639.1 36643.7 36643.7 36648.3 36653 36657.6 36657.6 36662.2 36666.8 36666.8 36671.5 36671.5 36676.1 36676.1 36680.7 36685.4 36690 36690 36690 36694.6 36699.3 36703.9 36703.9 36708.6 36713.2 36717.8 36717.8 36722.5 36727.1 36731.7 36731.7 36731.7 36736.4 36741 36745.7 36745.7 36745.7 36750.3 36755 36755 36759.6 36764.2 36768.9 36773.5 36778.2 36782.8 36787.5 36792.1 36796.8 36801.4 36806.1 36806.1 36810.7 36815.4 36820 36820 36824.7 36824.7 36829.3 36834 36834 36838.6 36838.6 36838.6 36838.6 36834 36829.3 36820 36806.1 36796.8 36778.2 36764.2 36745.7 36722.5 36703.9 36685.4 36657.6 36629.8 36606.7 36579 36546.7 36505.1 36472.9 36449.9 36431.5 36408.5 36390.1 36367.2 36348.8 36325.9 36316.7 36312.1 36312.1 36303 36289.2 36275.5 36252.6 36234.3 36225.2 36211.5 36193.2 36174.9 36161.2 36143 36129.3 36111.1 36097.4 36083.8 36070.1 36051.9 36051.9 36047.4 36070.1 36092.9 36111.1 36129.3 36156.7 36174.9 36193.2 36197.8 36202.3 36206.9 36206.9 36202.3 36184 36174.9 36165.8 36156.7 36152.1 36143 36138.4 36138.4 36133.9 36133.9 36129.3 36124.8 36124.8 36124.8 36120.2 36115.6 36115.6 36111.1 36106.5 36097.4 36083.8 36070.1 36061 36051.9 36038.3 36011 35979.2 35947.5 35915.8 35884.1 35847.9 35820.8 35789.2 35762.2 35735.1 35703.6 35676.6 35654.1 35636.2 35613.7 35591.3 35577.8 35559.9 35542 35528.6 35501.7 35479.4 35470.4 35457 35434.7 35416.8 35394.5 35372.2 35358.9 35345.5 35332.2 35318.8 35301 35283.3 35269.9 35256.6 35243.3 35216.7 35181.2 35145.8 35119.3 35088.3 35057.4 35022.1 34991.3 34960.5 34929.7 34890.1 34850.6 34811.2 34771.8 34728.1 34684.4 34640.8 34597.2 34558.1 34514.7 34471.3 34441 34410.6 34384.7 34358.8 34332.9 34302.6 34276.8 34250.9 34229.4 34207.9 34177.8 34152 34122 34092 34057.7 34015 33972.2 33925.3 33874.2 33823.1 33776.4 33721.3 33683.2 33653.6 33619.8 33586 33552.3 33522.8 33493.3 33459.7
36583.6 36583.6 36583.6 36583.6 36583.6 36583.6 36588.2 36588.2 36588.2 36592.8 36592.8 36592.8 36597.4 36597.4 36597.4 36597.4 36597.4 36597.4 36592.8 36592.8 36592.8 36592.8 36592.8 36588.2 36588.2 36588.2 36592.8 36592.8 36592.8 36592.8 36597.4 36597.4 36597.4 36597.4 36597.4 36597.4 36597.4 36597.4 36597.4 36602.1 36602.1 36602.1 36602.1 36606.7 36606.7 36606.7 36606.7 36606.7 36611.3 36611.3 36611.3 36611.3 36611.3 36611.3 36615.9 36615.9 36615.9 36620.6 36620.6 36620.6 36620.6 36625.2 36625.2 36625.2 36625.2 36620.6 36620.6 36620.6 36620.6 36620.6 36620.6 36620.6 36620.6 36615.9 36615.9 36615.9 36615.9 36615.9 36615.9 36615.9 36615.9 36615.9 36611.3 36611.3 36606.7 36606.7 36602.1 36602.1 36602.1 36597.4 36597.4 36597.4 36597.4 36597.4 36592.8 36597.4 36597.4 36597.4 36597.4 36592.8 36592.8 36592.8 36597.4 36597.4 36602.1 36606.7 36611.3 36611.3 36615.9 36620.6 36625.2 36629.8 36629.8 36629.8 36634.4 36639.1 36643.7 36643.7 36643.7 36643.7 36643.7 36639.1 36634.4 36634.4 36634.4 36634.4 36634.4 36634.4 36634.4 36634.4 36634.4 36629.8 36629.8 36634.4 36634.4 36634.4 36634.4 36639.1 36639.1 36643.7 36643.7 36648.3 36657.6 36657.6 36657.6 36662.2 36666.8 36671.5 36671.5 36676.1 36680.7 36685.4 36690 36690 36690 36694.6 36699.3 36699.3 36703.9 36703.9 36703.9 36708.6 36713.2 36717.8 36717.8 36717.8 36722.5 36727.1 36731.7 36731.7 36741 36745.7 36745.7 36745.7 36750.3 36755 36759.6 36759.6 36764.2 36764.2 36768.9 36768.9 36773.5 36778.2 36778.2 36782.8 36787.5 36792.1 36796.8 36801.4 36806.1 36810.7 36815.4 36820 36824.7 36829.3 36834 36838.6 36838.6 36838.6 36843.3 36847.9 36852.6 36852.6 36852.6 36857.2 36861.9 36861.9 36866.6 36866.6 36866.6 36866.6 36852.6 36843.3 36838.6 36820 36796.8 36782.8 36759.6 36745.7 36727.1 36703.9 36676.1 36653 36620.6 36592.8 36583.6 36565.1 36542 36523.6 36500.5 36477.5 36454.5 36436.1 36413.1 36390.1 36367.2 36358 36348.8 36330.5 36312.1 36289.2 36270.9 36257.2 36243.5 36225.2 36206.9 36193.2 36174.9 36161.2 36143 36129.3 36111.1 36097.4 36083.8 36070.1 36074.7 36097.4 36124.8 36143 36165.8 36188.6 36211.5 36225.2 36229.7 36229.7 36234.3 36238.9 36220.6 36206.9 36202.3 36184 36179.5 36170.4 36161.2 36156.7 36156.7 36156.7 36156.7 36156.7 36152.1 36147.6 36143 36143 36143 36138.4 36138.4 36133.9 36124.8 36111.1 36102 36092.9 36083.8 36061 36029.2 35997.4 35965.6 35933.9 35897.7 35866 35834.4 35807.3 35775.7 35748.6 35721.6 35690.1 35672.1 35649.6 35631.7 35609.2 35595.8 35573.4 35559.9 35546.5 35519.6 35501.7 35488.3 35470.4 35448.1 35430.2 35412.4 35390.1 35376.7 35363.3 35345.5 35332.2 35318.8 35301 35287.7 35274.4 35256.6 35230 35198.9 35163.5 35132.5 35101.6 35070.7 35035.4 35004.5 34978.1 34942.9 34903.3 34863.8 34824.3 34784.9 34741.2 34697.5 34653.9 34614.7 34571.1 34527.7 34484.3 34449.6 34423.6 34397.7 34371.7 34345.8 34319.9 34289.7 34263.8 34238 34216.5 34195 34164.9 34134.9 34104.8 34070.6 34032.1 33989.3 33938.1 33887 33835.9 33789.2 33738.3 33691.7 33662.1 33632.5 33594.5 33560.7 33531.2 33497.6 33468.1
36602.1 36602.1 36602.1 36606.7 36606.7 36606.7 36611.3 36611.3 36611.3 36611.3 36611.3 36611.3 36615.9 36615.9 36615.9 36615.9 36615.9 36615.9 36615.9 36615.9 36611.3 36611.3 36611.3 36611.3 36611.3 36611.3 36611.3 36611.3 36611.3 36615.9 36615.9 36615.9 36615.9 36615.9 36620.6 36620.6 36620.6 36620.6 36620.6 36625.2 36625.2 36625.2 36629.8 36629.8 36629.8 36629.8 36629.8 36629.8 36629.8 36629.8 36634.4 36634.4 36634.4 36639.1 36639.1 36639.1 36643.7 36643.7 36643.7 36643.7 36643.7 36643.7 36643.7 36643.7 36643.7 36643.7 36643.7 36643.7 36643.7 36643.7 36643.7 36643.7 36643.7 36643.7 36643.7 36643.7 36643.7 36643.7 36639.1 36639.1 36639.1 36639.1 36634.4 36634.4 36629.8 36629.8 36629.8 36629.8 36625.2 36625.2 36620.6 36620.6 36620.6 36615.9 36615.9 36615.9 36615.9 36620.6 36615.9 36615.9 36611.3 36611.3 36620.6 36625.2 36629.8 36629.8 36629.8 36634.4 36643.7 36643.7 36648.3 36648.3 36653 36653 36657.6 36657.6 36662.2 36662.2 36666.8 36666.8 36666.8 36662.2 36662.2 36657.6 36657.6 36657.6 36657.6 36657.6 36657.6 36657.6 36657.6 36657.6 36657.6 36657.6 36657.6 36657.6 36657.6 36662.2 36662.2 36666.8 36671.5 36676.1 36676.1 36680.7 36685.4 36690 36690 36694.6 36699.3 36703.9 36703.9 36708.6 36708.6 36713.2 36717.8 36717.8 36717.8 36722.5 36722.5 36727.1 36731.7 36731.7 36731.7 36736.4 36741 36745.7 36745.7 36750.3 36755 36759.6 36764.2 36764.2 36768.9 36773.5 36778.2 36778.2 36778.2 36782.8 36787.5 36792.1 36792.1 36792.1 36796.8 36801.4 36806.1 36806.1 36810.7 36815.4 36820 36824.7 36829.3 36838.6 36838.6 36843.3 36847.9 36852.6 36852.6 36857.2 36861.9 36866.6 36866.6 36871.2 36875.9 36875.9 36880.6 36880.6 36880.6 36885.2 36889.9 36894.5 36894.5 36899.2 36889.9 36880.6 36875.9 36857.2 36838.6 36820 36801.4 36787.5 36773.5 36745.7 36722.5 36699.3 36671.5 36657.6 36643.7 36639.1 36629.8 36611.3 36592.8 36569.7 36551.3 36523.6 36505.1 36482.1 36459.1 36422.3 36385.5 36367.2 36348.8 36330.5 36307.5 36289.2 36270.9 36257.2 36238.9 36220.6 36206.9 36188.6 36174.9 36156.7 36143 36124.8 36111.1 36097.4 36106.5 36129.3 36156.7 36174.9 36202.3 36225.2 36243.5 36252.6 36257.2 36261.8 36266.3 36257.2 36243.5 36229.7 36220.6 36211.5 36202.3 36193.2 36184 36174.9 36174.9 36174.9 36174.9 36174.9 36170.4 36170.4 36170.4 36165.8 36161.2 36161.2 36156.7 36156.7 36152.1 36143 36129.3 36120.2 36111.1 36079.2 36042.8 36011 35979.2 35947.5 35915.8 35879.6 35847.9 35820.8 35793.7 35762.2 35735.1 35708.1 35685.6 35667.6 35645.2 35631.7 35609.2 35591.3 35573.4 35559.9 35542 35519.6 35506.2 35488.3 35465.9 35448.1 35430.2 35407.9 35394.5 35381.2 35358.9 35350 35336.6 35318.8 35301 35292.1 35269.9 35243.3 35212.2 35176.8 35145.8 35119.3 35088.3 35053 35022.1 34991.3 34956.1 34920.9 34877 34837.5 34798.1 34758.7 34715 34671.3 34627.7 34584.2 34545.1 34501.6 34462.6 34432.3 34410.6 34380.4 34354.4 34328.5 34302.6 34276.8 34250.9 34229.4 34207.9 34177.8 34147.7 34117.7 34083.4 34049.2 34002.1 33955.2 33899.7 33852.9 33806.1 33751 33704.4 33674.7 33640.9 33607.1 33569.2 33539.7 33510.2 33480.7
36625.2 36625.2 36625.2 36629.8 36629.8 36629.8 36629.8 36629.8 36629.8 36634.4 36634.4 36634.4 36639.1 36639.1 36639.1 36639.1 36639.1 36639.1 36639.1 36639.1 36639.1 36634.4 36634.4 36634.4 36634.4 36634.4 36634.4 36634.4 36634.4 36639.1 36639.1 36639.1 36639.1 36639.1 36643.7 36643.7 36643.7 36643.7 36643.7 36643.7 36643.7 36648.3 36648.3 36648.3 36653 36653 36653 36653 36653 36657.6 36657.6 36657.6 36657.6 36657.6 36657.6 36662.2 36662.2 36666.8 36666.8 36666.8 36666.8 36671.5 36671.5 36671.5 36671.5 36671.5 36671.5 36671.5 36671.5 36671.5 36666.8 36666.8 36666.8 36666.8 36666.8 36666.8 36662.2 36662.2 36662.2 36662.2 36662.2 36662.2 36657.6 36657.6 36657.6 36657.6 36653 36653 36648.3 36648.3 36643.7 36643.7 36643.7 36643.7 36639.1 36639.1 36643.7 36643.7 36643.7 36639.1 36639.1 36639.1 36643.7 36643.7 36648.3 36653 36657.6 36657.6 36662.2 36666.8 36671.5 36671.5 36671.5 36676.1 36680.7 36685.4 36690 36690 36690 36690 36690 36690 36690 36690 36685.4 36685.4 36685.4 36685.4 36685.4 36685.4 36685.4 36685.4 36685.4 36685.4 36685.4 36685.4 36685.4 36690 36690 36690 36694.6 36703.9 36703.9 36703.9 36708.6 36713.2 36717.8 36717.8 36717.8 36722.5 36727.1 36731.7 36731.7 36731.7 36736.4 36741 36745.7 36745.7 36745.7 36750.3 36750.3 36755 36759.6 36764.2 36764.2 36764.2 36768.9 36773.5 36778.2 36778.2 36787.5 36792.1 36792.1 36792.1 36796.8 36801.4 36806.1 36806.1 36806.1 36810.7 36815.4 36820 36820 36820 36824.7 36829.3 36834 36838.6 36843.3 36847.9 36852.6 36857.2 36866.6 36866.6 36871.2 36875.9 36880.6 36880.6 36885.2 36889.9 36894.5 36894.5 36894.5 36899.2 36903.9 36903.9 36908.5 36913.2 36913.2 36917.9 36922.5 36927.2 36927.2 36922.5 36913.2 36894.5 36880.6 36861.9 36843.3 36829.3 36815.4 36792.1 36764.2 36745.7 36731.7 36722.5 36708.6 36703.9 36694.6 36685.4 36680.7 36666.8 36643.7 36620.6 36597.4 36555.9 36519 36482.1 36436.1 36403.9 36385.5 36367.2 36348.8 36325.9 36303 36284.6 36270.9 36252.6 36238.9 36220.6 36206.9 36188.6 36174.9 36156.7 36143 36133.9 36156.7 36179.5 36202.3 36220.6 36243.5 36270.9 36284.6 36289.2 36289.2 36293.8 36298.4 36280.1 36261.8 36248 36243.5 36229.7 36225.2 36216 36202.3 36197.8 36197.8 36197.8 36197.8 36197.8 36197.8 36193.2 36193.2 36188.6 36184 36184 36184 36179.5 36174.9 36170.4 36156.7 36147.6 36129.3 36092.9 36056.5 36024.6 35997.4 35961.1 35929.4 35897.7 35866 35834.4 35807.3 35780.2 35753.1 35721.6 35703.6 35681.1 35663.1 35645.2 35627.2 35604.7 35591.3 35573.4 35559.9 35537.5 35524.1 35501.7 35479.4 35461.5 35448.1 35425.8 35412.4 35394.5 35376.7 35363.3 35354.4 35336.6 35318.8 35305.5 35278.8 35256.6 35225.5 35194.5 35159.1 35132.5 35101.6 35070.7 35039.8 35004.5 34969.3 34934.1 34890.1 34850.6 34815.6 34771.8 34728.1 34684.4 34645.2 34601.6 34558.1 34514.7 34475.6 34445.3 34419.3 34393.3 34367.4 34341.5 34315.6 34285.4 34263.8 34238 34220.8 34190.7 34160.6 34126.3 34096.3 34066.3 34019.2 33972.2 33916.8 33869.9 33818.9 33767.9 33712.8 33687.4 33649.4 33615.6 33577.6 33548.1 33518.6 33484.9
36643.7 36643.7 36643.7 36648.3 36648.3 36648.3 36653 36653 36653 36657.6 36657.6 36657.6 36657.6 36657.6 36657.6 36657.6 36657.6 36657.6 36657.6 36657.6 36657.6 36657.6 36657.6 36657.6 36657.6 36657.6 36657.6 36657.6 36657.6 36657.6 36657.6 36657.6 36657.6 36662.2 36662.2 36662.2 36662.2 36662.2 36666.8 36666.8 36671.5 36671.5 36671.5 36671.5 36671.5 36671.5 36671.5 36671.5 36676.1 36676.1 36676.1 36680.7 36680.7 36685.4 36685.4 36685.4 36690 36690 36690 36690 36690 36690 36690 36694.6 36690 36690 36690 36690 36690 36690 36690 36690 36690 36690 36690 36690 36690 36690 36690 36690 36685.4 36685.4 36685.4 36680.7 36680.7 36676.1 36676.1 36676.1 36671.5 36671.5 36671.5 36666.8 36666.8 36662.2 36662.2 36662.2 36662.2 36666.8 36662.2 36662.2 36657.6 36662.2 36666.8 36671.5 36671.5 36676.1 36680.7 36685.4 36690 36690 36694.6 36694.6 36699.3 36699.3 36703.9 36703.9 36708.6 36708.6 36713.2 36713.2 36713.2 36713.2 36713.2 36713.2 36708.6 36708.6 36708.6 36708.6 36708.6 36708.6 36708.6 36708.6 36708.6 36708.6 36708.6 36708.6 36708.6 36713.2 36717.8 36717.8 36717.8 36727.1 36727.1 36731.7 36731.7 36736.4 36741 36741 36745.7 36745.7 36750.3 36755 36755 36759.6 36764.2 36764.2 36764.2 36768.9 36768.9 36773.5 36778.2 36778.2 36778.2 36782.8 36787.5 36792.1 36792.1 36796.8 36801.4 36806.1 36806.1 36810.7 36815.4 36820 36820 36820 36824.7 36829.3 36834 36834 36838.6 36838.6 36843.3 36847.9 36852.6 36852.6 36857.2 36866.6 36866.6 36871.2 36875.9 36880.6 36885.2 36889.9 36894.5 36899.2 36903.9 36908.5 36913.2 36913.2 36913.2 36917.9 36922.5 36927.2 36927.2 36927.2 36931.9 36936.5 36941.2 36941.2 36945.9 36955.2 36955.2 36955.2 36955.2 36941.2 36922.5 36913.2 36894.5 36871.2 36857.2 36838.6 36810.7 36796.8 36792.1 36787.5 36773.5 36764.2 36755 36745.7 36736.4 36731.7 36731.7 36699.3 36657.6 36611.3 36574.4 36537.4 36495.9 36459.1 36422.3 36403.9 36380.9 36358 36335 36316.7 36303 36284.6 36266.3 36248 36234.3 36220.6 36202.3 36188.6 36170.4 36184 36206.9 36229.7 36248 36275.5 36293.8 36316.7 36316.7 36316.7 36321.3 36325.9 36321.3 36303 36284.6 36270.9 36261.8 36252.6 36243.5 36234.3 36225.2 36216 36216 36216 36216 36216 36216 36216 36216 36211.5 36206.9 36206.9 36202.3 36202.3 36197.8 36193.2 36188.6 36179.5 36143 36111.1 36074.7 36042.8 36011 35979.2 35947.5 35911.2 35879.6 35852.4 35820.8 35793.7 35766.7 35739.6 35717.1 35699.1 35681.1 35663.1 35640.7 35622.7 35604.7 35591.3 35573.4 35559.9 35537.5 35519.6 35497.2 35479.4 35461.5 35443.6 35430.2 35412.4 35390.1 35381.2 35367.8 35354.4 35341.1 35318.8 35292.1 35269.9 35243.3 35207.8 35176.8 35145.8 35119.3 35083.9 35053 35017.7 34982.5 34947.3 34903.3 34863.8 34828.7 34789.3 34745.5 34701.9 34658.2 34614.7 34575.5 34532 34488.6 34458.3 34428 34402 34376.1 34350.1 34324.2 34298.3 34276.8 34250.9 34229.4 34203.6 34173.5 34139.2 34109.1 34079.1 34032.1 33989.3 33933.8 33882.7 33835.9 33780.7 33729.8 33695.9 33662.1 33624 33590.2 33556.5 33527 33497.6
36666.8 36666.8 36666.8 36671.5 36671.5 36671.5 36671.5 36671.5 36671.5 36676.1 36676.1 36676.1 36680.7 36680.7 36680.7 36680.7 36680.7 36680.7 36680.7 36680.7 36680.7 36680.7 36680.7 36676.1 36676.1 36676.1 36676.1 36676.1 36680.7 36680.7 36680.7 36680.7 36680.7 36685.4 36685.4 36685.4 36685.4 36690 36690 36690 36690 36690 36694.6 36694.6 36694.6 36694.6 36699.3 36699.3 36699.3 36703.9 36703.9 36703.9 36703.9 36703.9 36703.9 36708.6 36708.6 36708.6 36713.2 36713.2 36713.2 36717.8 36717.8 36717.8 36717.8 36717.8 36717.8 36717.8 36717.8 36717.8 36717.8 36717.8 36713.2 36713.2 36713.2 36713.2 36713.2 36713.2 36708.6 36708.6 36708.6 36708.6 36708.6 36703.9 36703.9 36703.9 36703.9 36699.3 36699.3 36694.6 36694.6 36690 36690 36690 36685.4 36685.4 36690 36690 36690 36685.4 36685.4 36685.4 36690 36690 36699.3 36699.3 36703.9 36703.9 36708.6 36717.8 36717.8 36717.8 36717.8 36722.5 36722.5 36727.1 36731.7 36731.7 36731.7 36731.7 36731.7 36731.7 36731.7 36736.4 36731.7 36731.7 36731.7 36731.7 36731.7 36731.7 36731.7 36731.7 36731.7 36731.7 36731.7 36731.7 36731.7 36736.4 36741 36741 36745.7 36745.7 36750.3 36755 36759.6 36764.2 36764.2 36764.2 36764.2 36773.5 36773.5 36778.2 36778.2 36782.8 36782.8 36787.5 36792.1 36792.1 36792.1 36796.8 36796.8 36801.4 36806.1 36806.1 36810.7 36810.7 36815.4 36820 36820 36829.3 36834 36838.6 36838.6 36838.6 36843.3 36847.9 36847.9 36852.6 36852.6 36857.2 36861.9 36866.6 36866.6 36871.2 36871.2 36880.6 36880.6 36885.2 36894.5 36894.5 36899.2 36903.9 36913.2 36913.2 36917.9 36922.5 36927.2 36927.2 36931.9 36936.5 36941.2 36941.2 36941.2 36945.9 36950.5 36955.2 36955.2 36959.9 36964.5 36969.2 36973.9 36978.6 36983.2 36983.2 36987.9 36978.6 36969.2 36955.2 36941.2 36922.5 36899.2 36880.6 36866.6 36852.6 36838.6 36838.6 36834 36824.7 36815.4 36806.1 36796.8 36792.1 36778.2 36750.3 36717.8 36671.5 36629.8 36597.4 36555.9 36514.4 36477.5 36440.7 36417.7 36390.1 36371.8 36348.8 36330.5 36316.7 36298.4 36280.1 36261.8 36248 36234.3 36220.6 36216 36234.3 36257.2 36280.1 36303 36321.3 36348.8 36358 36353.4 36353.4 36358 36362.6 36344.2 36325.9 36303 36289.2 36284.6 36275.5 36261.8 36257.2 36243.5 36238.9 36238.9 36238.9 36238.9 36238.9 36238.9 36238.9 36238.9 36234.3 36229.7 36229.7 36229.7 36225.2 36220.6 36216 36216 36197.8 36156.7 36124.8 36088.3 36056.5 36024.6 35992.9 35961.1 35929.4 35897.7 35866 35834.4 35807.3 35784.7 35757.6 35735.1 35712.6 35694.6 35676.6 35658.6 35636.2 35618.2 35604.7 35591.3 35573.4 35555.4 35533 35510.7 35492.8 35474.9 35461.5 35443.6 35425.8 35407.9 35394.5 35385.6 35372.2 35354.4 35332.2 35305.5 35278.8 35256.6 35221.1 35190.1 35159.1 35132.5 35101.6 35066.2 35030.9 34991.3 34960.5 34920.9 34877 34841.9 34802.4 34758.7 34715 34671.3 34632.1 34588.5 34545.1 34501.6 34471.3 34445.3 34415 34389 34363.1 34337.2 34307 34285.4 34263.8 34242.3 34216.5 34182.1 34152 34126.3 34087.7 34049.2 34002.1 33946.6 33899.7 33848.7 33797.7 33742.5 33704.4 33674.7 33636.7 33598.7 33564.9 33535.4 33506
36685.4 36690 36690 36690 36690 36690 36694.6 36694.6 36694.6 36694.6 36699.3 36699.3 36703.9 36703.9 36703.9 36703.9 36703.9 36703.9 36703.9 36703.9 36703.9 36703.9 36703.9 36703.9 36699.3 36699.3 36699.3 36703.9 36703.9 36703.9 36703.9 36703.9 36703.9 36703.9 36703.9 36703.9 36703.9 36708.6 36708.6 36713.2 36713.2 36713.2 36717.8 36717.8 36717.8 36717.8 36717.8 36717.8 36722.5 36722.5 36722.5 36727.1 36727.1 36727.1 36731.7 36731.7 36731.7 36731.7 36731.7 36731.7 36736.4 36736.4 36736.4 36741 36741 36741 36741 36741 36741 36741 36736.4 36736.4 36736.4 36736.4 36736.4 36736.4 36731.7 36731.7 36731.7 36731.7 36731.7 36731.7 36731.7 36731.7 36731.7 36727.1 36727.1 36722.5 36722.5 36717.8 36717.8 36717.8 36713.2 36708.6 36708.6 36703.9 36708.6 36708.6 36708.6 36708.6 36703.9 36708.6 36713.2 36717.8 36717.8 36722.5 36727.1 36731.7 36731.7 36736.4 36741 36745.7 36745.7 36745.7 36745.7 36750.3 36755 36759.6 36759.6 36759.6 36755 36759.6 36759.6 36759.6 36759.6 36759.6 36759.6 36759.6 36759.6 36759.6 36759.6 36759.6 36759.6 36759.6 36759.6 36759.6 36759.6 36764.2 36764.2 36764.2 36768.9 36773.5 36778.2 36778.2 36782.8 36782.8 36787.5 36792.1 36792.1 36792.1 36796.8 36801.4 36801.4 36806.1 36806.1 36806.1 36810.7 36815.4 36815.4 36820 36820 36824.7 36829.3 36829.3 36834 36838.6 36838.6 36843.3 36847.9 36852.6 36852.6 36857.2 36861.9 36866.6 36866.6 36866.6 36871.2 36871.2 36875.9 36880.6 36880.6 36885.2 36889.9 36894.5 36894.5 36899.2 36908.5 36913.2 36913.2 36917.9 36927.2 36927.2 36931.9 36941.2 36941.2 36945.9 36950.5 36955.2 36955.2 36959.9 36959.9 36964.5 36969.2 36973.9 36973.9 36973.9 36978.6 36983.2 36987.9 36992.6 36997.3 37001.9 37006.6 37011.3 37011.3 37016 37016 37001.9 36987.9 36969.2 36950.5 36931.9 36917.9 36903.9 36894.5 36885.2 36880.6 36871.2 36866.6 36866.6 36852.6 36838.6 36820 36792.1 36768.9 36731.7 36690 36653 36611.3 36574.4 36528.2 36482.1 36449.9 36426.9 36403.9 36385.5 36362.6 36344.2 36325.9 36307.5 36293.8 36280.1 36266.3 36248 36266.3 36289.2 36307.5 36330.5 36348.8 36371.8 36390.1 36390.1 36390.1 36390.1 36390.1 36385.5 36362.6 36348.8 36330.5 36312.1 36303 36293.8 36280.1 36275.5 36266.3 36257.2 36257.2 36257.2 36257.2 36257.2 36257.2 36257.2 36257.2 36257.2 36257.2 36252.6 36248 36248 36243.5 36238.9 36234.3 36211.5 36174.9 36143 36106.5 36070.1 36038.3 36011 35974.7 35943 35911.2 35879.6 35852.4 35825.3 35798.2 35771.2 35748.6 35730.6 35712.6 35690.1 35676.6 35654.1 35636.2 35618.2 35604.7 35591.3 35568.9 35546.5 35528.6 35510.7 35492.8 35474.9 35461.5 35443.6 35421.3 35407.9 35399 35390.1 35367.8 35345.5 35318.8 35292.1 35269.9 35238.9 35203.4 35176.8 35145.8 35114.8 35075.1 35044.2 35004.5 34973.7 34934.1 34890.1 34855 34815.6 34776.2 34732.4 34688.8 34645.2 34601.6 34562.5 34519 34484.3 34453.9 34428 34402 34371.7 34345.8 34319.9 34298.3 34276.8 34250.9 34229.4 34195 34164.9 34134.9 34100.6 34066.3 34015 33963.7 33908.3 33865.7 33810.4 33755.2 33712.8 33683.2 33645.1 33611.3 33577.6 33543.9 33514.4
36703.9 36708.6 36708.6 36713.2 36713.2 36713.2 36717.8 36717.8 36717.8 36717.8 36717.8 36717.8 36722.5 36722.5 36722.5 36722.5 36722.5 36722.5 36722.5 36722.5 36722.5 36722.5 36722.5 36722.5 36722.5 36717.8 36717.8 36722.5 36722.5 36722.5 36722.5 36722.5 36727.1 36727.1 36727.1 36727.1 36727.1 36731.7 36731.7 36731.7 36731.7 36736.4 36736.4 36736.4 36741 36741 36741 36745.7 36745.7 36745.7 36745.7 36745.7 36745.7 36750.3 36750.3 36750.3 36755 36755 36759.6 36759.6 36759.6 36759.6 36764.2 36764.2 36764.2 36764.2 36764.2 36764.2 36764.2 36764.2 36764.2 36764.2 36764.2 36764.2 36759.6 36759.6 36759.6 36759.6 36759.6 36759.6 36755 36755 36755 36755 36750.3 36750.3 36750.3 36745.7 36745.7 36745.7 36741 36741 36736.4 36731.7 36731.7 36731.7 36731.7 36731.7 36731.7 36731.7 36731.7 36731.7 36736.4 36741 36745.7 36745.7 36750.3 36755 36759.6 36764.2 36764.2 36764.2 36768.9 36768.9 36768.9 36773.5 36778.2 36778.2 36778.2 36778.2 36778.2 36778.2 36778.2 36778.2 36782.8 36782.8 36782.8 36782.8 36782.8 36782.8 36782.8 36782.8 36782.8 36782.8 36782.8 36782.8 36782.8 36787.5 36792.1 36792.1 36792.1 36796.8 36796.8 36801.4 36806.1 36806.1 36810.7 36810.7 36815.4 36820 36820 36820 36824.7 36829.3 36829.3 36834 36838.6 36838.6 36838.6 36843.3 36843.3 36847.9 36852.6 36852.6 36857.2 36857.2 36861.9 36866.6 36866.6 36875.9 36880.6 36880.6 36880.6 36885.2 36889.9 36894.5 36894.5 36894.5 36899.2 36903.9 36908.5 36913.2 36913.2 36917.9 36922.5 36927.2 36927.2 36936.5 36941.2 36941.2 36950.5 36955.2 36955.2 36959.9 36964.5 36973.9 36973.9 36978.6 36978.6 36983.2 36987.9 36987.9 36992.6 36992.6 36997.3 37001.9 37001.9 37006.6 37016 37016 37020.7 37030 37030 37034.7 37034.7 37039.4 37048.7 37048.7 37039.4 37016 37001.9 36983.2 36969.2 36955.2 36941.2 36936.5 36927.2 36922.5 36917.9 36913.2 36903.9 36880.6 36861.9 36838.6 36810.7 36787.5 36745.7 36708.6 36666.8 36625.2 36579 36532.8 36491.3 36463.7 36436.1 36417.7 36394.7 36376.3 36358 36339.6 36321.3 36307.5 36293.8 36298.4 36316.7 36335 36358 36376.3 36399.3 36422.3 36426.9 36426.9 36422.3 36422.3 36426.9 36403.9 36385.5 36367.2 36348.8 36330.5 36325.9 36312.1 36303 36293.8 36289.2 36275.5 36275.5 36275.5 36280.1 36280.1 36280.1 36280.1 36280.1 36280.1 36275.5 36275.5 36275.5 36270.9 36266.3 36261.8 36252.6 36225.2 36188.6 36156.7 36120.2 36088.3 36051.9 36024.6 35992.9 35961.1 35929.4 35897.7 35866 35838.9 35816.3 35789.2 35762.2 35744.1 35726.1 35703.6 35690.1 35667.6 35649.6 35636.2 35622.7 35604.7 35586.8 35559.9 35542 35524.1 35506.2 35492.8 35474.9 35457 35439.2 35425.8 35416.8 35403.5 35381.2 35358.9 35332.2 35305.5 35278.8 35252.2 35216.7 35190.1 35159.1 35128.1 35088.3 35053 35017.7 34986.9 34947.3 34907.7 34868.2 34833.1 34789.3 34745.5 34701.9 34658.2 34619 34575.5 34532 34493 34466.9 34441 34415 34389 34358.8 34332.9 34311.3 34289.7 34263.8 34238 34207.9 34177.8 34147.7 34113.4 34083.4 34032.1 33976.5 33925.3 33878.4 33823.1 33772.2 33725.5 33691.7 33657.8 33619.8 33586 33552.3 33522.8
36727.1 36731.7 36731.7 36731.7 36731.7 36731.7 36736.4 36736.4 36736.4 36736.4 36741 36741 36745.7 36745.7 36745.7 36745.7 36745.7 36745.7 36745.7 36745.7 36741 36745.7 36745.7 36745.7 36745.7 36745.7 36745.7 36745.7 36745.7 36745.7 36745.7 36745.7 36745.7 36745.7 36745.7 36745.7 36745.7 36750.3 36750.3 36755 36755 36759.6 36759.6 36764.2 36764.2 36764.2 36764.2 36764.2 36764.2 36768.9 36768.9 36773.5 36773.5 36773.5 36778.2 36778.2 36778.2 36778.2 36778.2 36778.2 36782.8 36782.8 36782.8 36787.5 36787.5 36787.5 36787.5 36787.5 36787.5 36787.5 36787.5 36787.5 36782.8 36782.8 36782.8 36782.8 36782.8 36782.8 36782.8 36778.2 36778.2 36778.2 36778.2 36778.2 36778.2 36773.5 36773.5 36773.5 36768.9 36768.9 36764.2 36764.2 36764.2 36759.6 36755 36750.3 36755 36755 36755 36750.3 36755 36759.6 36764.2 36764.2 36768.9 36773.5 36773.5 36778.2 36778.2 36782.8 36787.5 36792.1 36792.1 36792.1 36792.1 36796.8 36801.4 36806.1 36801.4 36801.4 36801.4 36801.4 36801.4 36806.1 36806.1 36806.1 36806.1 36806.1 36806.1 36806.1 36806.1 36806.1 36806.1 36806.1 36806.1 36806.1 36806.1 36810.7 36815.4 36815.4 36820 36820 36820 36824.7 36829.3 36834 36834 36838.6 36838.6 36838.6 36843.3 36847.9 36847.9 36852.6 36852.6 36857.2 36857.2 36861.9 36866.6 36866.6 36866.6 36871.2 36875.9 36875.9 36880.6 36880.6 36885.2 36889.9 36894.5 36894.5 36899.2 36903.9 36908.5 36913.2 36913.2 36913.2 36917.9 36917.9 36922.5 36927.2 36927.2 36936.5 36936.5 36941.2 36941.2 36950.5 36955.2 36959.9 36964.5 36969.2 36973.9 36973.9 36983.2 36987.9 36987.9 36992.6 36997.3 37001.9 37001.9 37006.6 37011.3 37011.3 37016 37016 37020.7 37025.3 37030 37030 37039.4 37044.1 37048.7 37053.4 37058.1 37062.8 37062.8 37062.8 37072.2 37076.9 37076.9 37067.5 37048.7 37030 37016 37006.6 36992.6 36987.9 36973.9 36969.2 36964.5 36955.2 36941.2 36927.2 36903.9 36880.6 36852.6 36829.3 36801.4 36755 36713.2 36671.5 36629.8 36583.6 36537.4 36495.9 36472.9 36449.9 36431.5 36403.9 36385.5 36367.2 36353.4 36339.6 36330.5 36348.8 36367.2 36385.5 36403.9 36426.9 36449.9 36463.7 36463.7 36463.7 36459.1 36459.1 36449.9 36426.9 36403.9 36390.1 36371.8 36353.4 36348.8 36330.5 36316.7 36312.1 36303 36298.4 36298.4 36298.4 36303 36303 36303 36303 36303 36303 36303 36298.4 36293.8 36293.8 36289.2 36289.2 36266.3 36238.9 36206.9 36170.4 36133.9 36102 36070.1 36038.3 36006.5 35974.7 35943 35911.2 35879.6 35852.4 35829.9 35802.8 35775.7 35762.2 35739.6 35721.6 35703.6 35685.6 35667.6 35649.6 35636.2 35618.2 35600.3 35577.8 35559.9 35542 35524.1 35506.2 35488.3 35474.9 35452.5 35439.2 35430.2 35416.8 35394.5 35367.8 35345.5 35318.8 35292.1 35265.5 35234.4 35203.4 35176.8 35137 35101.6 35066.2 35030.9 35000.1 34960.5 34920.9 34881.4 34846.2 34806.8 34763 34719.3 34675.7 34632.1 34588.5 34549.4 34506 34475.6 34449.6 34423.6 34397.7 34371.7 34345.8 34319.9 34298.3 34276.8 34250.9 34220.8 34195 34160.6 34126.3 34096.3 34049.2 33993.6 33942.4 33891.2 33840.2 33784.9 33738.3 33700.1 33666.3 33632.5 33594.5 33564.9 33531.2
36745.7 36745.7 36750.3 36750.3 36755 36755 36759.6 36759.6 36759.6 36759.6 36764.2 36764.2 36764.2 36764.2 36764.2 36764.2 36764.2 36764.2 36764.2 36764.2 36764.2 36764.2 36764.2 36764.2 36764.2 36764.2 36764.2 36764.2 36764.2 36764.2 36764.2 36768.9 36768.9 36768.9 36768.9 36768.9 36773.5 36773.5 36773.5 36778.2 36778.2 36778.2 36778.2 36782.8 36782.8 36787.5 36787.5 36792.1 36792.1 36792.1 36792.1 36792.1 36792.1 36796.8 36796.8 36796.8 36801.4 36801.4 36806.1 36806.1 36806.1 36806.1 36806.1 36806.1 36806.1 36806.1 36806.1 36806.1 36806.1 36806.1 36806.1 36806.1 36806.1 36806.1 36806.1 36806.1 36806.1 36806.1 36806.1 36806.1 36806.1 36806.1 36806.1 36801.4 36801.4 36796.8 36796.8 36796.8 36792.1 36792.1 36792.1 36787.5 36782.8 36778.2 36778.2 36778.2 36778.2 36778.2 36778.2 36778.2 36778.2 36782.8 36782.8 36792.1 36792.1 36792.1 36796.8 36801.4 36806.1 36806.1 36810.7 36815.4 36815.4 36815.4 36815.4 36820 36820 36824.7 36824.7 36824.7 36824.7 36824.7 36824.7 36824.7 36829.3 36829.3 36829.3 36834 36834 36834 36834 36834 36834 36834 36834 36834 36834 36838.6 36838.6 36838.6 36843.3 36847.9 36847.9 36852.6 36852.6 36852.6 36857.2 36857.2 36861.9 36866.6 36866.6 36866.6 36871.2 36875.9 36875.9 36880.6 36880.6 36880.6 36885.2 36889.9 36894.5 36894.5 36894.5 36899.2 36903.9 36903.9 36908.5 36913.2 36913.2 36917.9 36927.2 36927.2 36927.2 36931.9 36936.5 36941.2 36941.2 36941.2 36941.2 36945.9 36955.2 36955.2 36959.9 36964.5 36969.2 36973.9 36978.6 36983.2 36987.9 36992.6 36997.3 37001.9 37006.6 37011.3 37016 37016 37020.7 37025.3 37030 37030 37030 37034.7 37039.4 37044.1 37048.7 37048.7 37053.4 37058.1 37062.8 37067.5 37072.2 37076.9 37081.5 37086.2 37090.9 37090.9 37095.6 37100.3 37105 37105 37100.3 37076.9 37062.8 37053.4 37039.4 37030 37025.3 37016 37011.3 36997.3 36978.6 36959.9 36945.9 36927.2 36894.5 36866.6 36838.6 36806.1 36759.6 36717.8 36671.5 36629.8 36583.6 36542 36509.8 36486.7 36463.7 36440.7 36422.3 36399.3 36380.9 36367.2 36376.3 36394.7 36417.7 36436.1 36454.5 36477.5 36495.9 36500.5 36495.9 36495.9 36495.9 36495.9 36472.9 36449.9 36422.3 36408.5 36394.7 36376.3 36362.6 36348.8 36339.6 36330.5 36325.9 36316.7 36316.7 36316.7 36316.7 36321.3 36321.3 36321.3 36321.3 36321.3 36321.3 36321.3 36316.7 36316.7 36312.1 36307.5 36284.6 36257.2 36220.6 36184 36152.1 36120.2 36083.8 36051.9 36024.6 35992.9 35956.6 35929.4 35897.7 35866 35843.4 35820.8 35793.7 35775.7 35753.1 35735.1 35721.6 35699.1 35681.1 35667.6 35649.6 35631.7 35613.7 35591.3 35573.4 35555.4 35537.5 35519.6 35501.7 35488.3 35470.4 35457 35448.1 35430.2 35403.5 35381.2 35358.9 35332.2 35305.5 35278.8 35247.7 35216.7 35185.6 35150.2 35119.3 35079.5 35044.2 35008.9 34978.1 34934.1 34894.5 34859.4 34820 34776.2 34732.4 34688.8 34649.5 34606 34562.5 34523.3 34488.6 34462.6 34432.3 34406.3 34384.7 34358.8 34332.9 34311.3 34289.7 34263.8 34233.7 34207.9 34173.5 34139.2 34109.1 34066.3 34010.7 33955.2 33908.3 33857.2 33801.9 33746.7 33712.8 33679 33645.1 33607.1 33569.2 33539.7
36764.2 36768.9 36773.5 36773.5 36778.2 36778.2 36778.2 36778.2 36778.2 36778.2 36782.8 36782.8 36787.5 36787.5 36787.5 36787.5 36787.5 36787.5 36787.5 36787.5 36782.8 36782.8 36782.8 36787.5 36787.5 36787.5 36787.5 36787.5 36787.5 36787.5 36787.5 36792.1 36792.1 36792.1 36792.1 36792.1 36792.1 36792.1 36796.8 36796.8 36796.8 36801.4 36801.4 36806.1 36806.1 36806.1 36806.1 36810.7 36810.7 36815.4 36815.4 36815.4 36820 36820 36820 36820 36820 36824.7 36824.7 36824.7 36829.3 36829.3 36829.3 36829.3 36834 36834 36834 36834 36834 36834 36834 36834 36834 36834 36829.3 36829.3 36829.3 36829.3 36829.3 36829.3 36829.3 36829.3 36824.7 36824.7 36824.7 36820 36820 36820 36820 36820 36815.4 36810.7 36806.1 36806.1 36801.4 36801.4 36796.8 36796.8 36801.4 36796.8 36806.1 36806.1 36806.1 36810.7 36815.4 36820 36820 36824.7 36829.3 36834 36838.6 36838.6 36838.6 36838.6 36838.6 36838.6 36843.3 36847.9 36847.9 36847.9 36847.9 36847.9 36847.9 36852.6 36852.6 36852.6 36852.6 36852.6 36857.2 36857.2 36857.2 36857.2 36857.2 36857.2 36857.2 36857.2 36857.2 36861.9 36861.9 36866.6 36866.6 36866.6 36871.2 36875.9 36875.9 36880.6 36880.6 36880.6 36885.2 36885.2 36889.9 36894.5 36894.5 36894.5 36899.2 36903.9 36903.9 36908.5 36908.5 36913.2 36913.2 36917.9 36922.5 36922.5 36927.2 36927.2 36931.9 36936.5 36941.2 36941.2 36945.9 36950.5 36955.2 36955.2 36955.2 36959.9 36959.9 36964.5 36969.2 36973.9 36978.6 36983.2 36987.9 36987.9 36992.6 36997.3 37001.9 37006.6 37011.3 37016 37020.7 37025.3 37030 37034.7 37039.4 37044.1 37048.7 37048.7 37048.7 37053.4 37058.1 37062.8 37062.8 37062.8 37067.5 37072.2 37076.9 37081.5 37090.9 37090.9 37095.6 37105 37105 37109.7 37114.4 37119.1 37123.8 37123.8 37133.1 37133.1 37133.1 37128.5 37114.4 37100.3 37086.2 37076.9 37072.2 37062.8 37048.7 37034.7 37016 37001.9 36983.2 36969.2 36941.2 36908.5 36880.6 36847.9 36806.1 36764.2 36717.8 36676.1 36634.4 36592.8 36546.7 36519 36495.9 36472.9 36449.9 36431.5 36413.1 36403.9 36426.9 36445.3 36463.7 36482.1 36505.1 36523.6 36537.4 36532.8 36523.6 36523.6 36523.6 36514.4 36495.9 36468.3 36445.3 36431.5 36417.7 36394.7 36385.5 36371.8 36358 36348.8 36344.2 36339.6 36339.6 36339.6 36339.6 36344.2 36344.2 36344.2 36344.2 36344.2 36344.2 36344.2 36339.6 36339.6 36335 36321.3 36298.4 36270.9 36234.3 36202.3 36165.8 36133.9 36102 36070.1 36038.3 36006.5 35974.7 35943 35911.2 35884.1 35861.5 35834.4 35807.3 35793.7 35766.7 35748.6 35735.1 35717.1 35699.1 35681.1 35663.1 35645.2 35631.7 35609.2 35591.3 35573.4 35555.4 35533 35519.6 35501.7 35483.8 35470.4 35461.5 35439.2 35416.8 35394.5 35367.8 35345.5 35318.8 35292.1 35261 35230 35198.9 35163.5 35128.1 35092.7 35057.4 35022.1 34991.3 34947.3 34907.7 34872.6 34833.1 34793.7 34749.9 34706.2 34662.6 34619 34579.8 34536.4 34497.3 34471.3 34445.3 34419.3 34393.3 34367.4 34345.8 34319.9 34298.3 34276.8 34250.9 34220.8 34186.4 34152 34122 34083.4 34027.8 33972.2 33925.3 33869.9 33818.9 33763.7 33725.5 33687.4 33653.6 33619.8 33577.6 33552.3
36787.5 36792.1 36792.1 36792.1 36792.1 36796.8 36801.4 36801.4 36801.4 36801.4 36806.1 36806.1 36806.1 36806.1 36806.1 36806.1 36806.1 36810.7 36806.1 36806.1 36806.1 36806.1 36806.1 36806.1 36806.1 36806.1 36806.1 36806.1 36806.1 36806.1 36810.7 36810.7 36810.7 36810.7 36810.7 36810.7 36815.4 36815.4 36820 36820 36820 36820 36820 36824.7 36824.7 36829.3 36829.3 36834 36838.6 36838.6 36838.6 36838.6 36838.6 36843.3 36843.3 36843.3 36847.9 36847.9 36847.9 36852.6 36852.6 36852.6 36852.6 36852.6 36852.6 36857.2 36857.2 36857.2 36857.2 36857.2 36857.2 36857.2 36852.6 36852.6 36852.6 36852.6 36852.6 36852.6 36852.6 36852.6 36852.6 36852.6 36852.6 36852.6 36847.9 36847.9 36843.3 36843.3 36838.6 36838.6 36838.6 36838.6 36834 36829.3 36824.7 36824.7 36820 36820 36820 36824.7 36829.3 36829.3 36834 36838.6 36838.6 36838.6 36843.3 36847.9 36852.6 36852.6 36857.2 36861.9 36866.6 36861.9 36861.9 36866.6 36866.6 36871.2 36871.2 36871.2 36866.6 36866.6 36871.2 36871.2 36871.2 36875.9 36875.9 36880.6 36880.6 36880.6 36880.6 36880.6 36880.6 36880.6 36880.6 36880.6 36880.6 36885.2 36885.2 36889.9 36894.5 36894.5 36894.5 36894.5 36899.2 36899.2 36903.9 36908.5 36908.5 36913.2 36913.2 36913.2 36917.9 36922.5 36922.5 36927.2 36927.2 36927.2 36931.9 36936.5 36936.5 36941.2 36941.2 36945.9 36950.5 36950.5 36955.2 36955.2 36959.9 36964.5 36973.9 36973.9 36973.9 36978.6 36983.2 36983.2 36987.9 36987.9 36987.9 36992.6 37001.9 37001.9 37006.6 37011.3 37016 37020.7 37025.3 37030 37034.7 37039.4 37044.1 37048.7 37053.4 37058.1 37062.8 37062.8 37067.5 37072.2 37076.9 37076.9 37076.9 37081.5 37086.2 37090.9 37090.9 37095.6 37105 37105 37109.7 37119.1 37123.8 37128.5 37133.1 37137.8 37137.8 37142.5 37147.2 37151.9 37156.6 37156.6 37156.6 37156.6 37161.3 37147.2 37133.1 37123.8 37114.4 37105 37090.9 37076.9 37058.1 37039.4 37020.7 37001.9 36978.6 36950.5 36917.9 36885.2 36852.6 36810.7 36768.9 36727.1 36680.7 36639.1 36597.4 36555.9 36528.2 36509.8 36486.7 36463.7 36440.7 36454.5 36477.5 36495.9 36514.4 36532.8 36555.9 36574.4 36574.4 36569.7 36560.5 36555.9 36555.9 36537.4 36514.4 36491.3 36463.7 36449.9 36436.1 36422.3 36403.9 36390.1 36376.3 36371.8 36362.6 36362.6 36362.6 36362.6 36362.6 36362.6 36362.6 36367.2 36367.2 36362.6 36362.6 36362.6 36362.6 36362.6 36358 36335 36312.1 36284.6 36252.6 36216 36184 36147.6 36115.6 36083.8 36051.9 36020.1 35988.3 35956.6 35924.8 35897.7 35875 35847.9 35825.3 35807.3 35784.7 35762.2 35748.6 35735.1 35712.6 35699.1 35676.6 35663.1 35645.2 35622.7 35604.7 35586.8 35568.9 35551 35533 35519.6 35501.7 35488.3 35474.9 35452.5 35430.2 35403.5 35381.2 35358.9 35332.2 35305.5 35278.8 35247.7 35212.2 35176.8 35141.4 35106 35070.7 35035.4 35004.5 34960.5 34925.3 34885.7 34850.6 34806.8 34763 34719.3 34680 34636.4 34592.9 34549.4 34514.7 34484.3 34458.3 34428 34402 34380.4 34358.8 34332.9 34311.3 34285.4 34259.5 34229.4 34199.3 34164.9 34134.9 34096.3 34040.6 33989.3 33933.8 33887 33831.6 33780.7 33734 33700.1 33666.3 33628.2 33590.2 33560.7
36806.1 36810.7 36810.7 36815.4 36815.4 36820 36820 36820 36820 36820 36824.7 36824.7 36829.3 36829.3 36834 36834 36834 36834 36829.3 36829.3 36824.7 36824.7 36824.7 36824.7 36824.7 36829.3 36829.3 36829.3 36829.3 36834 36834 36834 36834 36834 36834 36838.6 36838.6 36838.6 36838.6 36838.6 36843.3 36843.3 36847.9 36847.9 36847.9 36852.6 36852.6 36852.6 36857.2 36857.2 36861.9 36861.9 36866.6 36866.6 36866.6 36866.6 36866.6 36866.6 36871.2 36871.2 36871.2 36875.9 36875.9 36880.6 36880.6 36880.6 36880.6 36880.6 36880.6 36880.6 36880.6 36880.6 36880.6 36880.6 36880.6 36880.6 36880.6 36880.6 36875.9 36875.9 36875.9 36875.9 36875.9 36875.9 36871.2 36866.6 36866.6 36866.6 36866.6 36861.9 36866.6 36861.9 36857.2 36852.6 36852.6 36852.6 36847.9 36847.9 36847.9 36852.6 36852.6 36852.6 36857.2 36861.9 36861.9 36866.6 36866.6 36871.2 36875.9 36880.6 36880.6 36885.2 36885.2 36885.2 36885.2 36885.2 36889.9 36894.5 36894.5 36894.5 36894.5 36894.5 36894.5 36894.5 36894.5 36894.5 36899.2 36899.2 36899.2 36903.9 36903.9 36908.5 36908.5 36908.5 36913.2 36908.5 36908.5 36908.5 36913.2 36913.2 36913.2 36917.9 36922.5 36922.5 36927.2 36927.2 36927.2 36927.2 36931.9 36936.5 36936.5 36941.2 36941.2 36941.2 36945.9 36950.5 36950.5 36955.2 36955.2 36955.2 36959.9 36964.5 36964.5 36969.2 36973.9 36973.9 36978.6 36983.2 36987.9 36987.9 36992.6 36997.3 37001.9 37001.9 37001.9 37006.6 37006.6 37011.3 37011.3 37016 37025.3 37030 37030 37034.7 37039.4 37048.7 37048.7 37058.1 37062.8 37062.8 37067.5 37072.2 37076.9 37081.5 37086.2 37090.9 37090.9 37095.6 37100.3 37100.3 37105 37105 37109.7 37114.4 37119.1 37123.8 37123.8 37133.1 37137.8 37142.5 37147.2 37151.9 37156.6 37161.3 37166 37166 37170.7 37175.4 37180.1 37184.8 37184.8 37184.8 37189.5 37189.5 37180.1 37166 37161.3 37147.2 37133.1 37114.4 37095.6 37076.9 37062.8 37044.1 37016 36987.9 36955.2 36927.2 36894.5 36857.2 36815.4 36773.5 36731.7 36690 36643.7 36597.4 36565.1 36537.4 36519 36495.9 36495.9 36509.8 36528.2 36551.3 36565.1 36583.6 36602.1 36611.3 36606.7 36597.4 36592.8 36592.8 36583.6 36555.9 36532.8 36509.8 36486.7 36472.9 36454.5 36436.1 36422.3 36408.5 36394.7 36390.1 36380.9 36380.9 36380.9 36380.9 36380.9 36385.5 36385.5 36390.1 36390.1 36385.5 36390.1 36390.1 36385.5 36385.5 36376.3 36348.8 36325.9 36298.4 36266.3 36229.7 36197.8 36165.8 36129.3 36097.4 36070.1 36038.3 36006.5 35970.2 35943 35911.2 35888.6 35866 35838.9 35820.8 35798.2 35775.7 35762.2 35748.6 35730.6 35712.6 35690.1 35676.6 35658.6 35640.7 35618.2 35600.3 35582.3 35564.4 35546.5 35533 35515.1 35501.7 35488.3 35461.5 35443.6 35416.8 35394.5 35367.8 35345.5 35318.8 35287.7 35256.6 35221.1 35190.1 35154.6 35119.3 35083.9 35048.6 35013.3 34978.1 34938.5 34898.9 34863.8 34820 34776.2 34732.4 34693.1 34649.5 34606 34566.8 34523.3 34497.3 34471.3 34445.3 34415 34389 34367.4 34345.8 34319.9 34298.3 34272.5 34242.3 34212.2 34177.8 34147.7 34113.4 34057.7 34002.1 33950.9 33904 33848.7 33797.7 33746.7 33712.8 33674.7 33640.9 33598.7 33564.9
36829.3 36829.3 36834 36834 36838.6 36838.6 36838.6 36843.3 36838.6 36843.3 36843.3 36847.9 36852.6 36852.6 36852.6 36852.6 36852.6 36852.6 36852.6 36852.6 36847.9 36847.9 36847.9 36847.9 36847.9 36847.9 36852.6 36852.6 36852.6 36852.6 36852.6 36852.6 36852.6 36852.6 36852.6 36857.2 36857.2 36861.9 36861.9 36861.9 36866.6 36866.6 36866.6 36866.6 36866.6 36871.2 36871.2 36875.9 36880.6 36880.6 36880.6 36885.2 36885.2 36885.2 36889.9 36889.9 36889.9 36894.5 36894.5 36894.5 36894.5 36894.5 36899.2 36899.2 36899.2 36903.9 36903.9 36903.9 36903.9 36903.9 36903.9 36903.9 36903.9 36903.9 36903.9 36899.2 36899.2 36899.2 36899.2 36899.2 36899.2 36899.2 36894.5 36894.5 36894.5 36894.5 36894.5 36889.9 36889.9 36885.2 36880.6 36885.2 36880.6 36880.6 36875.9 36875.9 36871.2 36871.2 36871.2 36875.9 36880.6 36880.6 36880.6 36885.2 36885.2 36885.2 36889.9 36894.5 36894.5 36899.2 36903.9 36908.5 36913.2 36908.5 36908.5 36913.2 36913.2 36913.2 36913.2 36913.2 36913.2 36913.2 36917.9 36917.9 36917.9 36922.5 36922.5 36922.5 36927.2 36927.2 36927.2 36927.2 36931.9 36931.9 36936.5 36931.9 36931.9 36931.9 36936.5 36936.5 36941.2 36941.2 36941.2 36945.9 36945.9 36950.5 36950.5 36955.2 36955.2 36955.2 36959.9 36959.9 36964.5 36969.2 36973.9 36973.9 36973.9 36973.9 36978.6 36983.2 36983.2 36987.9 36987.9 36992.6 36997.3 37001.9 37001.9 37001.9 37006.6 37011.3 37016 37020.7 37020.7 37025.3 37030 37030 37030 37030 37034.7 37044.1 37048.7 37053.4 37058.1 37062.8 37062.8 37067.5 37076.9 37076.9 37086.2 37090.9 37090.9 37095.6 37100.3 37105 37109.7 37114.4 37119.1 37123.8 37123.8 37123.8 37128.5 37133.1 37137.8 37137.8 37142.5 37147.2 37151.9 37156.6 37161.3 37166 37170.7 37180.1 37180.1 37184.8 37189.5 37194.2 37198.9 37198.9 37208.4 37213.1 37213.1 37213.1 37217.8 37217.8 37217.8 37213.1 37198.9 37184.8 37170.7 37151.9 37137.8 37119.1 37100.3 37076.9 37058.1 37025.3 36997.3 36964.5 36931.9 36899.2 36857.2 36815.4 36773.5 36731.7 36690 36648.3 36606.7 36574.4 36555.9 36542 36555.9 36569.7 36588.2 36602.1 36611.3 36634.4 36657.6 36643.7 36643.7 36634.4 36625.2 36625.2 36597.4 36574.4 36555.9 36532.8 36509.8 36495.9 36477.5 36459.1 36445.3 36426.9 36417.7 36408.5 36403.9 36399.3 36403.9 36403.9 36403.9 36403.9 36403.9 36408.5 36408.5 36408.5 36408.5 36408.5 36403.9 36403.9 36390.1 36362.6 36339.6 36312.1 36280.1 36243.5 36211.5 36179.5 36147.6 36115.6 36083.8 36051.9 36020.1 35988.3 35956.6 35929.4 35902.2 35879.6 35852.4 35834.4 35811.8 35793.7 35775.7 35762.2 35744.1 35726.1 35708.1 35690.1 35672.1 35654.1 35631.7 35618.2 35600.3 35577.8 35559.9 35546.5 35533 35519.6 35497.2 35474.9 35452.5 35430.2 35407.9 35381.2 35358.9 35332.2 35301 35269.9 35234.4 35203.4 35167.9 35132.5 35092.7 35061.8 35026.5 34991.3 34951.7 34912.1 34877 34833.1 34793.7 34749.9 34706.2 34667 34623.4 34579.8 34540.7 34506 34480 34453.9 34428 34402 34380.4 34358.8 34332.9 34307 34281.1 34255.2 34225.1 34195 34160.6 34126.3 34074.9 34023.5 33968 33916.8 33865.7 33810.4 33755.2 33725.5 33687.4 33649.4 33607.1 33577.6
36847.9 36852.6 36852.6 36852.6 36857.2 36857.2 36861.9 36861.9 36861.9 36866.6 36866.6 36866.6 36866.6 36871.2 36871.2 36875.9 36875.9 36875.9 36871.2 36871.2 36866.6 36866.6 36866.6 36866.6 36866.6 36866.6 36871.2 36871.2 36871.2 36875.9 36875.9 36875.9 36875.9 36875.9 36880.6 36880.6 36880.6 36880.6 36880.6 36880.6 36885.2 36885.2 36889.9 36889.9 36894.5 36894.5 36894.5 36894.5 36899.2 36903.9 36903.9 36908.5 36908.5 36913.2 36913.2 36913.2 36913.2 36913.2 36917.9 36917.9 36917.9 36922.5 36922.5 36927.2 36927.2 36927.2 36927.2 36927.2 36927.2 36927.2 36927.2 36927.2 36927.2 36927.2 36927.2 36927.2 36927.2 36927.2 36927.2 36927.2 36922.5 36922.5 36922.5 36922.5 36922.5 36917.9 36913.2 36913.2 36913.2 36913.2 36908.5 36908.5 36908.5 36903.9 36899.2 36899.2 36894.5 36894.5 36894.5 36899.2 36903.9 36903.9 36908.5 36908.5 36913.2 36913.2 36913.2 36917.9 36922.5 36927.2 36927.2 36931.9 36931.9 36931.9 36931.9 36931.9 36936.5 36936.5 36941.2 36941.2 36941.2 36941.2 36941.2 36941.2 36941.2 36941.2 36941.2 36945.9 36945.9 36950.5 36950.5 36955.2 36955.2 36955.2 36959.9 36955.2 36955.2 36955.2 36959.9 36959.9 36959.9 36964.5 36969.2 36969.2 36973.9 36973.9 36973.9 36973.9 36978.6 36983.2 36983.2 36987.9 36987.9 36992.6 36992.6 36997.3 37001.9 37001.9 37001.9 37001.9 37006.6 37011.3 37011.3 37016 37016 37020.7 37025.3 37030 37030 37034.7 37039.4 37044.1 37048.7 37048.7 37048.7 37053.4 37053.4 37058.1 37058.1 37062.8 37072.2 37076.9 37076.9 37086.2 37090.9 37090.9 37095.6 37105 37105 37109.7 37119.1 37123.8 37123.8 37128.5 37133.1 37137.8 37137.8 37142.5 37147.2 37151.9 37151.9 37151.9 37156.6 37161.3 37166 37170.7 37175.4 37180.1 37184.8 37194.2 37198.9 37203.6 37208.4 37213.1 37213.1 37217.8 37222.5 37227.2 37231.9 37236.6 37236.6 37241.3 37241.3 37241.3 37246 37246 37241.3 37227.2 37213.1 37194.2 37175.4 37156.6 37137.8 37114.4 37090.9 37062.8 37034.7 37001.9 36973.9 36941.2 36903.9 36861.9 36815.4 36778.2 36736.4 36694.6 36653 36611.3 36588.2 36597.4 36611.3 36625.2 36643.7 36653 36662.2 36685.4 36690 36680.7 36671.5 36666.8 36657.6 36643.7 36620.6 36592.8 36569.7 36555.9 36528.2 36509.8 36495.9 36477.5 36463.7 36449.9 36436.1 36426.9 36422.3 36422.3 36422.3 36422.3 36422.3 36426.9 36426.9 36431.5 36431.5 36431.5 36431.5 36431.5 36431.5 36426.9 36403.9 36376.3 36353.4 36325.9 36293.8 36261.8 36229.7 36197.8 36161.2 36129.3 36097.4 36070.1 36033.7 36001.9 35970.2 35943 35920.3 35893.1 35870.5 35847.9 35825.3 35807.3 35793.7 35775.7 35757.6 35739.6 35721.6 35703.6 35685.6 35667.6 35649.6 35631.7 35613.7 35591.3 35577.8 35559.9 35546.5 35533 35510.7 35488.3 35465.9 35443.6 35416.8 35394.5 35367.8 35341.1 35314.4 35283.3 35247.7 35216.7 35176.8 35145.8 35106 35075.1 35039.8 35004.5 34964.9 34929.7 34890.1 34850.6 34806.8 34763 34719.3 34680 34636.4 34597.2 34553.8 34519 34493 34466.9 34441 34415 34389 34367.4 34345.8 34319.9 34294 34268.2 34238 34203.6 34173.5 34139.2 34096.3 34040.6 33989.3 33933.8 33878.4 33823.1 33767.9 33734 33700.1 33662.1 33619.8 33586
36866.6 36871.2 36871.2 36875.9 36875.9 36880.6 36880.6 36880.6 36880.6 36885.2 36885.2 36889.9 36889.9 36894.5 36894.5 36894.5 36894.5 36894.5 36894.5 36894.5 36889.9 36889.9 36889.9 36889.9 36889.9 36889.9 36894.5 36894.5 36894.5 36894.5 36894.5 36894.5 36894.5 36894.5 36899.2 36899.2 36899.2 36903.9 36903.9 36903.9 36908.5 36908.5 36913.2 36913.2 36913.2 36913.2 36913.2 36917.9 36922.5 36927.2 36927.2 36927.2 36931.9 36931.9 36936.5 36936.5 36936.5 36941.2 36941.2 36941.2 36941.2 36941.2 36945.9 36945.9 36945.9 36950.5 36950.5 36950.5 36950.5 36950.5 36950.5 36950.5 36950.5 36950.5 36950.5 36950.5 36950.5 36950.5 36945.9 36945.9 36945.9 36945.9 36945.9 36945.9 36941.2 36941.2 36941.2 36941.2 36936.5 36931.9 36931.9 36927.2 36927.2 36927.2 36927.2 36922.5 36922.5 36917.9 36922.5 36927.2 36927.2 36927.2 36931.9 36931.9 36931.9 36936.5 36936.5 36941.2 36945.9 36950.5 36955.2 36955.2 36955.2 36955.2 36955.2 36955.2 36955.2 36959.9 36959.9 36959.9 36959.9 36959.9 36964.5 36964.5 36964.5 36964.5 36969.2 36969.2 36973.9 36973.9 36973.9 36973.9 36978.6 36983.2 36983.2 36983.2 36983.2 36983.2 36983.2 36987.9 36987.9 36987.9 36987.9 36992.6 36992.6 36997.3 36997.3 37001.9 37001.9 37001.9 37006.6 37011.3 37011.3 37016 37016 37016 37020.7 37025.3 37025.3 37030 37030 37030 37034.7 37039.4 37044.1 37044.1 37048.7 37048.7 37053.4 37058.1 37062.8 37067.5 37067.5 37072.2 37076.9 37076.9 37076.9 37076.9 37081.5 37090.9 37090.9 37100.3 37105 37105 37109.7 37119.1 37123.8 37128.5 37133.1 37137.8 37137.8 37147.2 37151.9 37151.9 37156.6 37161.3 37166 37166 37170.7 37170.7 37175.4 37180.1 37180.1 37184.8 37189.5 37198.9 37198.9 37203.6 37213.1 37217.8 37222.5 37227.2 37231.9 37241.3 37241.3 37241.3 37246 37255.4 37260.2 37264.9 37264.9 37269.6 37274.3 37274.3 37274.3 37274.3 37269.6 37264.9 37250.7 37231.9 37217.8 37198.9 37175.4 37151.9 37133.1 37105 37076.9 37048.7 37016 36978.6 36941.2 36903.9 36861.9 36820 36782.8 36741 36703.9 36666.8 36657.6 36662.2 36671.5 36680.7 36694.6 36703.9 36717.8 36731.7 36722.5 36713.2 36703.9 36699.3 36690 36666.8 36639.1 36611.3 36592.8 36569.7 36551.3 36532.8 36514.4 36495.9 36482.1 36468.3 36454.5 36445.3 36445.3 36440.7 36440.7 36440.7 36445.3 36449.9 36449.9 36449.9 36449.9 36449.9 36454.5 36454.5 36449.9 36445.3 36422.3 36390.1 36367.2 36339.6 36307.5 36275.5 36243.5 36211.5 36174.9 36143 36111.1 36083.8 36051.9 36020.1 35988.3 35956.6 35933.9 35906.7 35884.1 35866 35843.4 35820.8 35807.3 35789.2 35775.7 35753.1 35735.1 35721.6 35699.1 35681.1 35663.1 35645.2 35627.2 35609.2 35591.3 35573.4 35559.9 35542 35519.6 35501.7 35474.9 35457 35430.2 35407.9 35381.2 35354.4 35327.7 35292.1 35261 35225.5 35190.1 35159.1 35119.3 35088.3 35053 35017.7 34978.1 34942.9 34903.3 34863.8 34820 34776.2 34736.8 34693.1 34653.9 34610.3 34566.8 34527.7 34501.6 34475.6 34449.6 34428 34402 34380.4 34358.8 34332.9 34307 34281.1 34250.9 34216.5 34186.4 34152 34109.1 34057.7 34002.1 33946.6 33895.5 33840.2 33784.9 33742.5 33712.8 33674.7 33632.5 33594.5
36889.9 36889.9 36894.5 36894.5 36894.5 36899.2 36899.2 36903.9 36903.9 36903.9 36908.5 36913.2 36913.2 36913.2 36913.2 36917.9 36917.9 36913.2 36913.2 36913.2 36913.2 36913.2 36913.2 36913.2 36913.2 36913.2 36913.2 36913.2 36913.2 36913.2 36917.9 36917.9 36917.9 36922.5 36922.5 36922.5 36922.5 36927.2 36927.2 36927.2 36927.2 36931.9 36931.9 36931.9 36936.5 36936.5 36941.2 36941.2 36941.2 36945.9 36945.9 36950.5 36955.2 36955.2 36955.2 36955.2 36959.9 36959.9 36964.5 36964.5 36964.5 36969.2 36969.2 36973.9 36973.9 36973.9 36973.9 36973.9 36973.9 36973.9 36973.9 36973.9 36973.9 36973.9 36973.9 36973.9 36973.9 36973.9 36973.9 36973.9 36973.9 36973.9 36969.2 36969.2 36969.2 36969.2 36964.5 36959.9 36959.9 36955.2 36955.2 36955.2 36955.2 36950.5 36950.5 36945.9 36945.9 36941.2 36945.9 36950.5 36950.5 36955.2 36955.2 36955.2 36955.2 36955.2 36959.9 36964.5 36969.2 36973.9 36973.9 36978.6 36978.6 36978.6 36978.6 36978.6 36978.6 36983.2 36987.9 36983.2 36983.2 36987.9 36987.9 36987.9 36987.9 36987.9 36987.9 36992.6 36992.6 36992.6 36997.3 36997.3 37001.9 37001.9 37006.6 37006.6 37006.6 37006.6 37006.6 37006.6 37011.3 37011.3 37016 37016 37016 37016 37020.7 37025.3 37025.3 37030 37030 37030 37034.7 37039.4 37039.4 37044.1 37048.7 37048.7 37048.7 37048.7 37053.4 37058.1 37058.1 37062.8 37062.8 37067.5 37072.2 37072.2 37076.9 37081.5 37086.2 37090.9 37090.9 37095.6 37095.6 37100.3 37105 37105 37105 37114.4 37119.1 37123.8 37128.5 37133.1 37137.8 37137.8 37147.2 37151.9 37156.6 37161.3 37166 37166 37175.4 37180.1 37180.1 37184.8 37189.5 37194.2 37194.2 37198.9 37198.9 37203.6 37208.4 37213.1 37213.1 37222.5 37227.2 37227.2 37236.6 37241.3 37246 37255.4 37260.2 37264.9 37269.6 37269.6 37274.3 37279 37283.7 37288.4 37288.4 37297.9 37302.6 37302.6 37302.6 37302.6 37297.9 37293.2 37288.4 37274.3 37260.2 37241.3 37217.8 37194.2 37170.7 37142.5 37114.4 37090.9 37053.4 37020.7 36987.9 36945.9 36908.5 36866.6 36824.7 36792.1 36768.9 36750.3 36731.7 36736.4 36745.7 36741 36745.7 36759.6 36768.9 36764.2 36755 36745.7 36736.4 36731.7 36713.2 36685.4 36657.6 36629.8 36611.3 36592.8 36569.7 36555.9 36532.8 36514.4 36500.5 36486.7 36472.9 36463.7 36463.7 36463.7 36463.7 36463.7 36463.7 36468.3 36468.3 36472.9 36472.9 36477.5 36477.5 36477.5 36477.5 36459.1 36436.1 36403.9 36380.9 36353.4 36321.3 36289.2 36257.2 36225.2 36193.2 36156.7 36129.3 36097.4 36065.6 36033.7 36001.9 35970.2 35947.5 35924.8 35897.7 35879.6 35857 35834.4 35820.8 35802.8 35789.2 35766.7 35748.6 35735.1 35712.6 35694.6 35676.6 35663.1 35640.7 35622.7 35604.7 35591.3 35573.4 35555.4 35533 35510.7 35488.3 35465.9 35448.1 35416.8 35394.5 35363.3 35336.6 35305.5 35274.4 35238.9 35203.4 35167.9 35132.5 35101.6 35061.8 35030.9 34991.3 34956.1 34916.5 34877 34833.1 34793.7 34749.9 34710.6 34667 34623.4 34584.2 34540.7 34514.7 34488.6 34462.6 34441 34415 34389 34367.4 34345.8 34319.9 34289.7 34263.8 34233.7 34199.3 34164.9 34130.6 34074.9 34019.2 33959.4 33912.5 33857.2 33801.9 33755.2 33721.3 33687.4 33640.9 33607.1
36913.2 36913.2 36913.2 36913.2 36917.9 36922.5 36922.5 36922.5 36922.5 36927.2 36927.2 36927.2 36931.9 36936.5 36936.5 36941.2 36941.2 36936.5 36936.5 36936.5 36931.9 36931.9 36931.9 36931.9 36931.9 36931.9 36931.9 36936.5 36936.5 36936.5 36941.2 36941.2 36941.2 36941.2 36941.2 36941.2 36945.9 36945.9 36945.9 36950.5 36950.5 36955.2 36955.2 36955.2 36955.2 36955.2 36959.9 36959.9 36964.5 36969.2 36969.2 36973.9 36973.9 36978.6 36978.6 36983.2 36983.2 36987.9 36987.9 36987.9 36987.9 36987.9 36992.6 36992.6 36992.6 36997.3 36997.3 36997.3 36997.3 36997.3 36997.3 36997.3 36997.3 36997.3 36997.3 36997.3 36997.3 36997.3 36997.3 36997.3 36992.6 36992.6 36992.6 36992.6 36992.6 36987.9 36987.9 36987.9 36987.9 36983.2 36978.6 36978.6 36973.9 36973.9 36973.9 36973.9 36973.9 36969.2 36973.9 36973.9 36973.9 36978.6 36978.6 36983.2 36983.2 36983.2 36987.9 36987.9 36992.6 36997.3 37001.9 37001.9 37001.9 37001.9 37001.9 37001.9 37001.9 37001.9 37006.6 37006.6 37006.6 37006.6 37006.6 37011.3 37011.3 37011.3 37016 37016 37016 37016 37016 37020.7 37020.7 37025.3 37030 37030 37030 37030 37030 37030 37030 37034.7 37039.4 37039.4 37044.1 37044.1 37044.1 37048.7 37048.7 37053.4 37053.4 37058.1 37062.8 37062.8 37062.8 37067.5 37067.5 37072.2 37072.2 37072.2 37076.9 37076.9 37081.5 37086.2 37090.9 37090.9 37090.9 37095.6 37100.3 37105 37105 37109.7 37114.4 37119.1 37123.8 37123.8 37123.8 37128.5 37133.1 37137.8 37142.5 37151.9 37151.9 37156.6 37161.3 37166 37170.7 37175.4 37180.1 37184.8 37189.5 37194.2 37198.9 37203.6 37208.4 37213.1 37213.1 37213.1 37217.8 37222.5 37227.2 37227.2 37231.9 37236.6 37241.3 37246 37250.7 37255.4 37260.2 37264.9 37274.3 37279 37283.7 37288.4 37293.2 37297.9 37302.6 37307.3 37312 37316.8 37316.8 37321.5 37326.2 37330.9 37330.9 37326.2 37321.5 37321.5 37316.8 37316.8 37302.6 37283.7 37260.2 37231.9 37208.4 37180.1 37156.6 37133.1 37095.6 37062.8 37030 36987.9 36950.5 36913.2 36880.6 36852.6 36838.6 36834 36815.4 36815.4 36806.1 36801.4 36806.1 36815.4 36810.7 36796.8 36787.5 36778.2 36768.9 36764.2 36731.7 36703.9 36676.1 36653 36629.8 36611.3 36592.8 36569.7 36555.9 36532.8 36519 36505.1 36495.9 36486.7 36486.7 36482.1 36482.1 36482.1 36486.7 36491.3 36495.9 36495.9 36495.9 36495.9 36495.9 36500.5 36495.9 36472.9 36449.9 36422.3 36394.7 36371.8 36339.6 36303 36275.5 36238.9 36206.9 36170.4 36143 36111.1 36083.8 36051.9 36015.6 35988.3 35961.1 35938.4 35911.2 35893.1 35870.5 35847.9 35834.4 35820.8 35802.8 35780.2 35762.2 35748.6 35726.1 35708.1 35690.1 35676.6 35658.6 35636.2 35618.2 35604.7 35591.3 35564.4 35546.5 35524.1 35501.7 35479.4 35457 35430.2 35403.5 35376.7 35345.5 35318.8 35287.7 35252.2 35216.7 35181.2 35145.8 35110.4 35075.1 35044.2 35008.9 34969.3 34934.1 34890.1 34850.6 34806.8 34763 34723.7 34680 34636.4 34597.2 34553.8 34527.7 34497.3 34475.6 34449.6 34428 34402 34380.4 34354.4 34332.9 34302.6 34276.8 34246.6 34212.2 34177.8 34143.5 34096.3 34040.6 33980.8 33929.6 33874.2 33818.9 33767.9 33734 33695.9 33653.6 33611.3
